-0.184579 0.330797 -0.142000
-0.437265 0.171882 0.010000
-0.204820 0.274883 -0.218000
-0.180424 0.366779 -0.114000
-0.317352 0.151366 -0.218000
-0.317352 0.151366 -0.218000
-0.176527 0.342762 -0.186000
-0.172080 0.446744 -0.126000
-0.212648 0.314918 -0.062000
-0.405213 0.183744 0.014000
-0.184631 0.318797 -0.218000
-0.441557 0.103900 -0.146000
-0.260681 0.307124 0.010000
-0.200802 0.278866 -0.218000
-0.265180 0.191142 -0.218000
-0.261163 0.195125 -0.218000
-0.288853 0.267245 0.014000
-0.493591 0.096124 -0.218000
-0.353420 0.135521 -0.118000
-0.296905 0.255279 0.014000
-0.208200 0.418899 -0.022000
-0.224923 0.250970 -0.110000
-0.176149 0.430762 -0.094000
-0.361472 0.123556 -0.218000
-0.176424 0.366762 -0.114000
-0.216888 0.258935 -0.118000
-0.349438 0.131504 -0.142000
-0.429282 0.167848 0.010000
-0.176424 0.366762 -0.110000
-0.373386 0.143607 -0.062000
-0.377506 0.115625 -0.218000
-0.473488 0.120038 -0.058000
-0.168097 0.442727 -0.118000
-0.313369 0.147349 -0.218000
-0.233009 0.231004 -0.118000
-0.405248 0.175745 0.014000
-0.289301 0.163246 -0.218000
-0.228355 0.382986 0.010000
-0.441523 0.111900 -0.086000
-0.273129 0.203177 -0.074000
-0.297335 0.155280 -0.218000
-0.240957 0.243039 -0.066000
-0.208906 0.254901 -0.142000
-0.281283 0.167211 -0.218000
-0.497591 0.096141 -0.118000
-0.208923 0.250901 -0.150000
-0.377214 0.183624 0.014000
-0.224338 0.386968 0.010000
-0.240561 0.335038 0.014000
-0.429592 0.095849 -0.218000
-0.260750 0.291124 0.014000
-0.156184 0.422676 -0.218000
-0.473505 0.116038 -0.054000
-0.156115 0.438675 -0.218000
-0.248664 0.311072 0.014000
-0.172338 0.386745 -0.090000
-0.160063 0.450693 -0.134000
-0.172631 0.318745 -0.186000
-0.465385 0.144003 -0.002000
-0.200200 0.418865 -0.018000
-0.409575 0.099762 -0.146000
-0.409575 0.099762 -0.142000
-0.236957 0.243021 -0.062000
-0.341145 0.199469 0.014000
-0.393265 0.171693 0.014000
-0.204716 0.298883 -0.062000
-0.228458 0.358986 0.014000
-0.365420 0.135573 -0.066000
-0.164493 0.350711 -0.142000
-0.156046 0.454675 -0.146000
-0.473488 0.120038 -0.038000
-0.293352 0.151263 -0.218000
-0.433609 0.091866 -0.150000
-0.433609 0.091866 -0.150000
-0.481608 0.092072 -0.114000
-0.204200 0.418882 -0.006000
-0.212235 0.410917 0.006000
-0.212235 0.410917 0.006000
-0.212235 0.410917 0.006000
-0.273163 0.195177 -0.066000
-0.377248 0.175624 0.014000
-0.341162 0.195469 0.014000
-0.168528 0.342728 -0.118000
-0.228510 0.346986 0.014000
-0.477591 0.096055 -0.094000
-0.164579 0.330711 -0.166000
-0.469505 0.116020 -0.042000
-0.160510 0.346694 -0.218000
-0.241163 0.195039 -0.218000
-0.413575 0.099780 -0.114000
-0.421575 0.099814 -0.106000
-0.273301 0.163177 -0.218000
-0.204218 0.414882 -0.002000
-0.164596 0.326711 -0.218000
-0.272922 0.251176 0.010000
-0.353524 0.111522 -0.218000
-0.164356 0.382710 -0.094000
-0.225095 0.210970 -0.218000
-0.297387 0.143280 -0.218000
-0.497660 0.080141 -0.210000
-0.168631 0.318728 -0.142000
-0.289008 0.231245 0.010000
-0.152046 0.454658 -0.138000
-0.381575 0.099642 -0.218000
-0.168682 0.306728 -0.182000
-0.233129 0.203005 -0.142000
-0.441643 0.083900 -0.218000
-0.477660 0.080055 -0.218000
-0.473523 0.112038 -0.042000
-0.345403 0.139487 -0.062000
-0.405334 0.155745 0.010000
-0.152063 0.450658 -0.130000
-0.333489 0.119435 -0.218000
-0.369455 0.127590 -0.062000
-0.337180 0.191452 0.014000
-0.216458 0.358934 0.010000
-0.148029 0.458641 -0.158000
-0.461643 0.083986 -0.130000
-0.196923 0.250849 -0.142000
-0.156528 0.342676 -0.218000
-0.280991 0.235211 0.010000
-0.321352 0.151384 -0.062000
-0.469660 0.080021 -0.146000
-0.329489 0.119418 -0.218000
-0.349438 0.131504 -0.070000
-0.409523 0.111762 -0.062000
-0.473660 0.080038 -0.138000
-0.277352 0.151194 -0.190000
-0.240733 0.295038 0.014000
-0.160631 0.318694 -0.186000
-0.164183 0.422710 -0.070000
-0.369575 0.099590 -0.218000
-0.465454 0.128003 -0.006000
-0.301077 0.215297 0.014000
-0.148424 0.366642 -0.218000
-0.144029 0.458624 -0.166000
-0.317472 0.123367 -0.218000
-0.180596 0.326780 -0.062000
-0.335967 -0.456559 -0.170000
-0.331967 -0.456576 -0.166000
-0.327967 -0.456594 -0.162000
-0.327967 -0.456594 -0.142000
-0.363966 -0.456439 -0.158000
-0.311967 -0.456662 -0.150000
-0.315950 -0.452645 -0.146000
-0.355932 -0.448473 -0.202000
-0.343812 -0.420525 -0.158000
-0.343932 -0.448525 -0.210000
-0.295967 -0.456731 -0.186000
-0.375966 -0.456387 -0.154000
-0.379966 -0.456370 -0.162000
-0.339881 -0.436542 -0.210000
-0.331932 -0.448577 -0.126000
-0.379966 -0.456370 -0.154000
-0.299967 -0.456714 -0.202000
-0.295950 -0.452731 -0.138000
-0.355949 -0.452473 -0.122000
-0.387966 -0.456336 -0.162000
-0.387932 -0.448336 -0.190000
-0.391966 -0.456318 -0.162000
-0.375966 -0.456387 -0.130000
-0.291950 -0.452749 -0.134000
-0.327915 -0.444594 -0.114000
-0.383932 -0.448353 -0.202000
-0.343812 -0.420525 -0.218000
-0.283967 -0.456783 -0.202000
-0.315829 -0.424646 -0.218000
-0.283950 -0.452783 -0.138000
-0.363846 -0.428439 -0.218000
-0.303915 -0.444697 -0.118000
-0.375949 -0.452387 -0.122000
-0.287933 -0.448766 -0.210000
-0.351915 -0.444491 -0.110000
-0.299898 -0.440714 -0.118000
-0.315795 -0.416646 -0.218000
-0.343777 -0.412525 -0.218000
-0.399966 -0.456284 -0.186000
-0.347777 -0.412508 -0.218000
-0.391966 -0.456318 -0.134000
-0.295915 -0.444731 -0.118000
-0.363726 -0.400439 -0.146000
-0.343709 -0.396525 -0.138000
-0.291898 -0.440749 -0.118000
-0.355760 -0.408474 -0.218000
-0.331674 -0.388577 -0.190000
-0.363898 -0.440439 -0.106000
-0.395811 -0.420302 -0.154000
-0.359760 -0.408456 -0.218000
-0.263967 -0.456869 -0.178000
-0.303778 -0.412697 -0.218000
-0.367777 -0.412422 -0.218000
-0.315898 -0.440645 -0.102000
-0.271950 -0.452835 -0.206000
-0.403966 -0.456267 -0.142000
-0.403966 -0.456267 -0.142000
-0.335674 -0.388560 -0.142000
-0.279881 -0.436800 -0.214000
-0.327846 -0.428594 -0.102000
-0.387932 -0.448336 -0.118000
-0.343674 -0.388525 -0.142000
-0.263967 -0.456869 -0.150000
-0.263967 -0.456869 -0.150000
-0.359743 -0.404456 -0.218000
-0.379915 -0.444370 -0.110000
-0.303675 -0.388698 -0.154000
-0.407966 -0.456250 -0.198000
-0.275795 -0.416818 -0.142000
-0.343898 -0.440525 -0.094000
-0.379880 -0.436370 -0.106000
-0.415966 -0.456215 -0.178000
-0.339640 -0.380543 -0.142000
-0.323846 -0.428611 -0.094000
-0.347881 -0.436508 -0.090000
-0.339674 -0.388543 -0.218000
-0.271830 -0.424835 -0.214000
-0.251968 -0.456921 -0.162000
-0.251968 -0.456921 -0.178000
-0.407914 -0.444250 -0.214000
-0.371657 -0.384405 -0.142000
-0.371898 -0.440405 -0.094000
-0.267933 -0.448852 -0.118000
-0.303692 -0.392697 -0.218000
-0.363622 -0.376440 -0.154000
-0.327657 -0.384594 -0.218000
-0.383725 -0.400353 -0.218000
-0.411932 -0.448232 -0.214000
-0.291709 -0.396749 -0.218000
-0.291709 -0.396749 -0.218000
-0.263847 -0.428869 -0.214000
-0.359657 -0.384457 -0.218000
-0.391743 -0.404319 -0.218000
-0.423966 -0.456181 -0.194000
-0.367605 -0.372422 -0.154000
-0.251968 -0.456921 -0.206000
-0.267709 -0.396852 -0.182000
-0.399897 -0.440284 -0.106000
-0.419828 -0.424198 -0.150000
-0.387708 -0.396336 -0.218000
-0.275675 -0.388818 -0.190000
-0.259830 -0.424886 -0.214000
-0.271675 -0.388835 -0.154000
-0.263778 -0.412869 -0.214000
-0.399742 -0.404284 -0.218000
-0.371605 -0.372405 -0.142000
-0.355829 -0.424474 -0.082000
-0.295778 -0.412732 -0.094000
-0.335795 -0.416560 -0.082000
-0.275658 -0.384818 -0.146000
-0.427966 -0.456164 -0.138000
-0.363829 -0.424439 -0.082000
-0.367588 -0.368422 -0.142000
-0.355640 -0.380474 -0.110000
-0.383657 -0.384353 -0.218000
-0.431966 -0.456146 -0.194000
-0.239968 -0.456972 -0.198000
-0.431966 -0.456146 -0.142000
-0.271640 -0.380835 -0.182000
-0.271658 -0.384835 -0.142000
-0.235968 -0.456989 -0.162000
-0.403725 -0.400267 -0.218000
-0.243950 -0.452955 -0.210000
-0.331795 -0.416577 -0.078000
-0.319588 -0.368629 -0.218000
-0.243864 -0.432955 -0.206000
-0.355588 -0.368474 -0.218000
-0.423777 -0.412181 -0.142000
-0.247813 -0.420938 -0.210000
-0.379622 -0.376371 -0.218000
-0.419932 -0.448198 -0.110000
-0.411674 -0.388233 -0.150000
-0.435966 -0.456129 -0.202000
-0.303847 -0.428697 -0.074000
-0.275830 -0.424818 -0.090000
-0.279830 -0.424800 -0.086000
-0.259899 -0.440886 -0.098000
-0.247796 -0.416938 -0.214000
-0.247796 -0.416938 -0.214000
-0.311847 -0.428663 -0.070000
-0.271658 -0.384835 -0.218000
-0.263692 -0.392870 -0.218000
-0.343554 -0.360526 -0.218000
-0.435949 -0.452129 -0.210000
-0.339846 -0.428542 -0.066000
-0.423794 -0.416181 -0.218000
-0.419914 -0.444198 -0.102000
-0.383794 -0.416353 -0.078000
-0.223968 -0.457041 -0.158000
-0.439966 -0.456112 -0.126000
-0.355795 -0.416474 -0.066000
-0.355795 -0.416474 -0.066000
-0.295812 -0.420732 -0.070000
-0.307812 -0.420680 -0.066000
-0.251709 -0.396921 -0.218000
-0.343795 -0.416525 -0.062000
-0.447966 -0.456078 -0.142000
-0.239744 -0.404973 -0.214000
-0.339502 -0.348543 -0.218000
-0.431742 -0.404147 -0.218000
-0.219968 -0.457058 -0.142000
-0.455966 -0.456043 -0.178000
-0.455966 -0.456043 -0.158000
-0.227813 -0.421024 -0.210000
-0.447811 -0.420078 -0.142000
-0.283812 -0.420783 -0.066000
-0.447966 -0.456078 -0.122000
-0.431828 -0.424147 -0.102000
-0.307795 -0.416680 -0.058000
-0.283537 -0.356784 -0.218000
-0.243641 -0.380956 -0.142000
-0.243641 -0.380956 -0.142000
-0.411605 -0.372233 -0.218000
-0.263847 -0.428869 -0.074000
-0.443811 -0.420095 -0.218000
-0.435897 -0.440129 -0.098000
-0.435897 -0.440129 -0.098000
-0.239692 -0.392973 -0.218000
-0.439845 -0.428112 -0.106000
-0.431656 -0.384147 -0.134000
-0.251623 -0.376921 -0.218000
-0.247641 -0.380938 -0.218000
-0.219847 -0.429058 -0.210000
-0.263572 -0.364870 -0.218000
-0.279589 -0.368801 -0.098000
-0.239675 -0.388973 -0.218000
-0.451828 -0.424061 -0.214000
-0.275606 -0.372818 -0.094000
-0.463966 -0.456009 -0.154000
-0.235882 -0.436990 -0.090000
-0.347450 -0.336509 -0.218000
-0.387794 -0.416336 -0.058000
-0.403536 -0.356268 -0.218000
-0.443673 -0.388095 -0.142000
-0.279503 -0.348801 -0.218000
-0.463948 -0.452009 -0.198000
-0.203968 -0.457127 -0.154000
-0.287572 -0.364767 -0.086000
-0.339795 -0.416542 -0.042000
-0.223830 -0.425041 -0.102000
-0.427845 -0.428164 -0.074000
-0.259830 -0.424886 -0.062000
-0.451880 -0.436061 -0.102000
-0.423570 -0.364182 -0.218000
-0.463897 -0.440009 -0.214000
-0.463948 -0.452009 -0.122000
-0.207847 -0.429110 -0.130000
-0.371433 -0.332406 -0.218000
-0.199968 -0.457144 -0.194000
-0.203934 -0.449127 -0.210000
-0.223847 -0.429041 -0.094000
-0.259606 -0.372887 -0.090000
-0.311416 -0.328664 -0.218000
-0.471965 -0.455974 -0.142000
-0.363416 -0.328440 -0.218000
-0.207847 -0.429110 -0.122000
-0.255520 -0.352904 -0.218000
-0.375794 -0.416388 -0.042000
-0.379433 -0.332371 -0.218000
-0.207865 -0.433110 -0.118000
-0.283795 -0.416783 -0.046000
-0.211899 -0.441093 -0.106000
-0.195968 -0.457161 -0.158000
-0.259503 -0.348887 -0.218000
-0.231572 -0.365007 -0.146000
-0.403484 -0.344268 -0.118000
-0.207796 -0.417110 -0.214000
-0.199951 -0.453144 -0.130000
-0.311399 -0.324664 -0.218000
-0.299795 -0.416714 -0.038000
-0.455845 -0.428043 -0.098000
-0.335365 -0.316561 -0.142000
-0.447742 -0.404078 -0.098000
-0.447742 -0.404078 -0.098000
-0.423777 -0.412181 -0.066000
-0.451776 -0.412061 -0.098000
-0.479965 -0.455940 -0.170000
-0.423519 -0.352182 -0.218000
-0.347382 -0.320509 -0.218000
-0.319382 -0.320629 -0.218000
-0.199848 -0.429144 -0.126000
-0.211813 -0.421093 -0.102000
-0.323795 -0.416611 -0.030000
-0.199899 -0.441144 -0.118000
-0.455776 -0.412044 -0.098000
-0.363382 -0.320440 -0.218000
-0.195882 -0.437162 -0.210000
-0.431501 -0.348147 -0.142000
-0.471828 -0.423975 -0.218000
-0.407450 -0.336251 -0.218000
-0.447604 -0.372078 -0.218000
-0.187951 -0.453196 -0.162000
-0.203830 -0.425127 -0.110000
-0.219830 -0.425058 -0.082000
-0.459759 -0.408026 -0.102000
-0.475862 -0.431957 -0.218000
-0.419605 -0.372199 -0.078000
-0.199830 -0.425144 -0.114000
-0.235830 -0.424990 -0.062000
-0.343468 -0.340526 -0.074000
-0.187968 -0.457196 -0.138000
-0.427777 -0.412164 -0.058000
-0.447742 -0.404078 -0.082000
-0.447742 -0.404078 -0.082000
-0.459776 -0.412026 -0.094000
-0.187968 -0.457196 -0.134000
-0.407433 -0.332251 -0.118000
-0.479897 -0.439940 -0.218000
-0.195779 -0.413162 -0.214000
-0.199744 -0.405145 -0.218000
-0.191830 -0.425179 -0.214000
-0.475776 -0.411958 -0.218000
-0.451776 -0.412061 -0.078000
-0.487948 -0.451906 -0.142000
-0.391381 -0.320320 -0.218000
-0.227538 -0.357025 -0.218000
-0.303348 -0.312698 -0.218000
-0.319778 -0.412628 -0.022000
-0.251451 -0.336922 -0.118000
-0.323330 -0.308612 -0.218000
-0.423450 -0.336182 -0.218000
-0.179968 -0.457230 -0.154000
-0.491948 -0.451888 -0.190000
-0.371794 -0.416405 -0.022000
-0.335416 -0.328560 -0.078000
-0.471690 -0.391975 -0.218000
-0.263400 -0.324870 -0.218000
-0.219555 -0.361059 -0.218000
-0.187848 -0.429196 -0.122000
-0.363485 -0.344440 -0.062000
-0.411381 -0.320234 -0.142000
-0.463708 -0.396009 -0.098000
-0.263365 -0.316870 -0.150000
-0.323468 -0.340612 -0.062000
-0.195710 -0.397162 -0.218000
-0.311778 -0.412663 -0.018000
-0.463690 -0.392009 -0.098000
-0.463604 -0.372010 -0.218000
-0.415777 -0.412216 -0.038000
-0.379777 -0.412370 -0.022000
-0.267795 -0.416852 -0.030000
-0.215796 -0.417076 -0.070000
-0.495948 -0.451871 -0.190000
-0.211538 -0.357094 -0.142000
-0.487879 -0.435906 -0.118000
-0.395777 -0.412302 -0.026000
-0.331416 -0.328578 -0.070000
-0.331279 -0.296578 -0.142000
-0.487828 -0.423906 -0.122000
-0.463587 -0.368010 -0.218000
-0.179899 -0.441230 -0.126000
-0.487845 -0.427906 -0.118000
-0.235452 -0.336990 -0.218000
-0.459708 -0.396026 -0.082000
-0.363450 -0.336440 -0.062000
-0.431433 -0.332148 -0.218000
-0.387450 -0.336337 -0.070000
-0.463759 -0.408009 -0.078000
-0.499948 -0.451854 -0.186000
-0.471673 -0.387975 -0.106000
-0.491862 -0.431889 -0.122000
-0.291313 -0.304750 -0.218000
-0.487776 -0.411906 -0.218000
-0.499931 -0.447854 -0.190000
-0.203555 -0.361128 -0.142000
-0.283296 -0.300784 -0.190000
-0.243796 -0.416955 -0.038000
-0.263365 -0.316870 -0.118000
-0.223796 -0.417041 -0.054000
-0.179865 -0.433230 -0.118000
-0.435432 -0.332130 -0.218000
-0.211796 -0.417093 -0.066000
-0.483707 -0.395923 -0.218000
-0.187848 -0.429196 -0.098000
-0.379450 -0.336371 -0.062000
-0.487742 -0.403906 -0.122000
-0.379313 -0.304371 -0.114000
-0.491776 -0.411889 -0.126000
-0.271331 -0.308836 -0.218000
-0.175882 -0.437248 -0.122000
-0.471656 -0.383975 -0.102000
-0.339279 -0.296544 -0.118000
-0.499914 -0.443854 -0.206000
-0.267778 -0.412852 -0.022000
-0.219796 -0.417059 -0.054000
-0.171934 -0.449265 -0.130000
-0.167968 -0.457282 -0.150000
-0.435467 -0.340130 -0.098000
-0.463673 -0.388009 -0.082000
-0.207796 -0.417110 -0.066000
-0.251365 -0.316922 -0.218000
-0.419364 -0.316199 -0.218000
-0.263348 -0.312870 -0.114000
-0.207538 -0.357111 -0.118000
-0.191796 -0.417179 -0.086000
-0.195590 -0.369162 -0.218000
-0.387295 -0.300337 -0.118000
-0.231796 -0.417007 -0.038000
-0.467793 -0.415992 -0.066000
-0.167917 -0.445282 -0.210000
-0.163968 -0.457299 -0.190000
-0.491673 -0.387889 -0.138000
-0.355261 -0.292475 -0.118000
-0.239383 -0.320973 -0.218000
-0.435519 -0.352130 -0.074000
-0.423329 -0.308182 -0.150000
-0.495759 -0.407872 -0.218000
-0.175762 -0.409248 -0.218000
-0.495707 -0.395872 -0.202000
-0.423329 -0.308182 -0.146000
-0.459484 -0.344027 -0.218000
-0.175693 -0.393248 -0.146000
-0.471776 -0.411975 -0.070000
-0.323760 -0.408611 -0.002000
-0.431777 -0.412147 -0.030000
-0.351244 -0.288492 -0.218000
-0.315760 -0.408646 -0.002000
-0.159968 -0.457316 -0.162000
-0.471484 -0.343975 -0.170000
-0.471484 -0.343975 -0.170000
-0.475553 -0.359958 -0.218000
-0.459467 -0.340027 -0.218000
-0.243331 -0.308956 -0.142000
-0.187796 -0.417196 -0.082000
-0.247314 -0.304939 -0.150000
-0.351261 -0.292492 -0.106000
-0.335365 -0.316561 -0.062000
-0.475501 -0.347958 -0.170000
-0.163917 -0.445299 -0.210000
-0.167882 -0.437282 -0.118000
-0.203503 -0.349128 -0.218000
-0.395278 -0.296303 -0.218000
-0.459708 -0.396026 -0.058000
-0.451742 -0.404061 -0.046000
-0.259314 -0.304888 -0.118000
-0.251297 -0.300922 -0.154000
-0.295382 -0.320733 -0.062000
-0.283399 -0.324784 -0.062000
-0.299761 -0.408715 -0.002000
-0.371760 -0.408405 -0.002000
-0.431777 -0.412147 -0.026000
-0.339760 -0.408542 0.002000
-0.167865 -0.433282 -0.114000
-0.159951 -0.453316 -0.202000
-0.163848 -0.429299 -0.214000
-0.159934 -0.449316 -0.206000
-0.491621 -0.375889 -0.130000
-0.243314 -0.304956 -0.142000
-0.215796 -0.417076 -0.042000
-0.259296 -0.300888 -0.218000
-0.227383 -0.321025 -0.218000
-0.499673 -0.387855 -0.202000
-0.363760 -0.408439 0.002000
-0.463673 -0.388009 -0.062000
-0.487587 -0.367906 -0.126000
-0.395261 -0.292303 -0.218000
-0.171659 -0.385265 -0.142000
-0.231796 -0.417007 -0.026000
-0.351192 -0.276492 -0.146000
-0.391381 -0.320320 -0.062000
-0.379347 -0.312371 -0.066000
-0.247314 -0.304939 -0.118000
-0.443759 -0.408095 -0.030000
-0.331330 -0.308578 -0.062000
-0.179607 -0.373231 -0.218000
-0.395381 -0.320302 -0.062000
-0.403261 -0.292268 -0.218000
-0.315330 -0.308647 -0.062000
-0.471587 -0.367975 -0.082000
-0.491570 -0.363889 -0.134000
-0.455398 -0.324044 -0.218000
-0.359330 -0.308457 -0.062000
-0.435346 -0.312131 -0.110000
-0.479535 -0.355941 -0.110000
-0.247297 -0.300939 -0.218000
-0.195486 -0.345162 -0.218000
-0.267382 -0.320853 -0.062000
-0.151951 -0.453351 -0.202000
-0.323313 -0.304612 -0.062000
-0.251279 -0.296922 -0.218000
-0.479570 -0.363941 -0.094000
-0.439759 -0.408112 -0.022000
-0.267245 -0.288853 -0.218000
-0.383313 -0.304354 -0.070000
-0.471570 -0.363975 -0.078000
-0.163848 -0.429299 -0.098000
-0.175590 -0.369248 -0.218000
-0.367313 -0.304423 -0.062000
-0.499570 -0.363855 -0.146000
-0.163693 -0.393300 -0.218000
-0.275348 -0.312819 -0.062000
-0.335175 -0.272561 -0.218000
-0.183538 -0.357214 -0.114000
-0.475449 -0.335958 -0.218000
-0.351158 -0.268492 -0.142000
-0.463673 -0.388009 -0.046000
-0.335691 -0.392560 0.010000
-0.323692 -0.392611 0.010000
-0.483501 -0.347924 -0.114000
-0.215521 -0.353076 -0.062000
-0.363175 -0.272441 -0.218000
-0.363175 -0.272441 -0.218000
-0.383278 -0.296354 -0.074000
-0.147934 -0.449368 -0.126000
-0.343175 -0.272527 -0.110000
-0.335158 -0.268561 -0.218000
-0.411226 -0.284234 -0.218000
-0.171573 -0.365265 -0.218000
-0.343141 -0.264527 -0.142000
-0.379708 -0.396371 0.010000
-0.379708 -0.396371 0.010000
-0.487484 -0.343907 -0.218000
-0.343175 -0.272527 -0.106000
-0.151779 -0.413351 -0.218000
-0.327640 -0.380594 0.010000
-0.455725 -0.400044 -0.026000
-0.423243 -0.288182 -0.218000
-0.383175 -0.272355 -0.218000
-0.159814 -0.421317 -0.090000
-0.139969 -0.457402 -0.154000
-0.255744 -0.404904 0.002000
-0.407330 -0.308251 -0.062000
-0.143882 -0.437385 -0.210000
-0.295279 -0.296733 -0.062000
-0.419226 -0.284200 -0.218000
-0.171538 -0.357266 -0.218000
-0.343141 -0.264527 -0.218000
-0.479518 -0.351941 -0.082000
-0.287675 -0.388766 0.010000
-0.311623 -0.376663 0.010000
-0.383278 -0.296354 -0.062000
-0.347605 -0.372508 0.010000
-0.475570 -0.363958 -0.062000
-0.395175 -0.272303 -0.218000
-0.151848 -0.429351 -0.098000
-0.367622 -0.376422 0.010000
-0.455708 -0.396044 -0.022000
-0.139934 -0.449402 -0.130000
-0.495484 -0.343872 -0.126000
-0.379639 -0.380371 0.010000
-0.135969 -0.457419 -0.154000
-0.271176 -0.272836 -0.218000
-0.399175 -0.272286 -0.218000
-0.163573 -0.365300 -0.218000
-0.295623 -0.376732 0.010000
-0.303606 -0.372698 0.010000
-0.403295 -0.300268 -0.062000
-0.143900 -0.441385 -0.110000
-0.331124 -0.260578 -0.218000
-0.299606 -0.372715 0.010000
-0.151676 -0.389351 -0.218000
-0.347124 -0.260509 -0.218000
-0.443708 -0.396095 -0.010000
-0.391158 -0.268320 -0.118000
-0.147814 -0.421368 -0.102000
-0.283262 -0.292784 -0.062000
-0.459690 -0.392027 -0.022000
-0.379141 -0.264372 -0.118000
-0.159538 -0.357317 -0.146000
-0.203331 -0.309128 -0.218000
-0.159538 -0.357317 -0.142000
-0.235228 -0.284991 -0.218000
-0.371123 -0.260406 -0.218000
-0.211297 -0.301094 -0.218000
-0.487484 -0.343907 -0.090000
-0.467656 -0.383992 -0.030000
-0.407674 -0.388250 0.010000
-0.499466 -0.339855 -0.126000
-0.499466 -0.339855 -0.214000
-0.175452 -0.337249 -0.218000
-0.191521 -0.353180 -0.066000
-0.383588 -0.368354 0.010000
-0.351106 -0.256492 -0.218000
-0.391605 -0.372319 0.010000
-0.219262 -0.293060 -0.218000
-0.171796 -0.417265 -0.050000
-0.151556 -0.361351 -0.158000
-0.251176 -0.272922 -0.218000
-0.135814 -0.421420 -0.214000
-0.279589 -0.368801 0.010000
-0.127969 -0.457454 -0.162000
-0.303537 -0.356698 0.010000
-0.227228 -0.285025 -0.218000
-0.299537 -0.356715 0.010000
-0.171452 -0.337266 -0.118000
-0.475604 -0.371958 -0.038000
-0.495432 -0.331872 -0.114000
-0.327193 -0.276595 -0.062000
-0.175418 -0.329249 -0.218000
-0.259262 -0.292888 -0.062000
-0.127917 -0.445454 -0.202000
-0.223761 -0.409041 0.002000
-0.359536 -0.356457 0.014000
-0.427708 -0.396164 0.010000
-0.127900 -0.441454 -0.202000
-0.487449 -0.335907 -0.086000
-0.487449 -0.335907 -0.086000
-0.243176 -0.272957 -0.218000
-0.199779 -0.413145 -0.014000
-0.159469 -0.341317 -0.190000
-0.227710 -0.397024 0.002000
-0.459656 -0.384027 -0.014000
-0.215245 -0.289077 -0.218000
-0.443209 -0.280096 -0.218000
-0.151521 -0.353352 -0.190000
-0.167796 -0.417282 -0.046000
-0.123969 -0.457471 -0.190000
-0.247142 -0.264940 -0.142000
-0.135728 -0.401420 -0.218000
-0.199435 -0.333145 -0.062000
-0.131779 -0.413437 -0.218000
-0.479466 -0.339941 -0.062000
-0.359158 -0.268458 -0.070000
-0.479518 -0.351941 -0.050000
-0.255142 -0.264905 -0.118000
-0.311176 -0.272664 -0.062000
-0.147590 -0.369369 -0.114000
-0.419140 -0.264200 -0.218000
-0.299485 -0.344715 0.010000
-0.479415 -0.327941 -0.074000
-0.311468 -0.340664 0.010000
-0.223314 -0.305042 -0.066000
-0.247623 -0.376938 0.010000
-0.303072 -0.248699 -0.218000
-0.495415 -0.327872 -0.102000
-0.131745 -0.405437 -0.218000
-0.351485 -0.344491 0.014000
-0.179796 -0.417231 -0.026000
-0.175383 -0.321249 -0.118000
-0.263555 -0.360870 0.010000
-0.355485 -0.344474 0.014000
-0.463621 -0.376009 -0.014000
-0.163435 -0.333300 -0.218000
-0.483363 -0.315924 -0.094000
-0.143590 -0.369386 -0.118000
-0.259124 -0.260888 -0.114000
-0.151538 -0.357352 -0.110000
-0.151538 -0.357352 -0.110000
-0.151538 -0.357352 -0.110000
-0.139573 -0.365403 -0.146000
-0.379502 -0.348371 0.014000
-0.311158 -0.268664 -0.062000
-0.207366 -0.317111 -0.062000
-0.251125 -0.260922 -0.218000
-0.419123 -0.260200 -0.218000
-0.499397 -0.323855 -0.110000
-0.159796 -0.417317 -0.046000
-0.143607 -0.373386 -0.106000
-0.303158 -0.268699 -0.062000
-0.187779 -0.413196 -0.014000
-0.283176 -0.272785 -0.062000
-0.127745 -0.405454 -0.218000
-0.423123 -0.260183 -0.218000
-0.331141 -0.264578 -0.062000
-0.327141 -0.264595 -0.062000
-0.295159 -0.268733 -0.062000
-0.295159 -0.268733 -0.062000
-0.287485 -0.344767 0.014000
-0.379158 -0.268372 -0.062000
-0.199245 -0.289146 -0.218000
-0.483346 -0.311924 -0.090000
-0.127642 -0.381455 -0.178000
-0.407089 -0.252251 -0.218000
-0.279073 -0.248802 -0.118000
-0.359141 -0.264458 -0.062000
-0.275176 -0.272819 -0.062000
-0.395072 -0.248303 -0.218000
-0.171366 -0.317266 -0.118000
-0.319038 -0.240630 -0.218000
-0.351038 -0.240492 -0.218000
-0.151779 -0.413351 -0.054000
-0.279159 -0.268802 -0.066000
-0.327433 -0.332595 0.014000
-0.131814 -0.421437 -0.090000
-0.131590 -0.369437 -0.174000
-0.115900 -0.441506 -0.198000
-0.479553 -0.359941 -0.030000
-0.371450 -0.336406 0.014000
-0.171779 -0.413265 -0.026000
-0.415519 -0.352216 0.010000
-0.115952 -0.453505 -0.134000
-0.131590 -0.369437 -0.190000
-0.143487 -0.345386 -0.190000
-0.175487 -0.345248 -0.062000
-0.127848 -0.429454 -0.094000
-0.411502 -0.348233 0.010000
-0.307434 -0.332681 0.014000
-0.123865 -0.433471 -0.102000
-0.451639 -0.380061 0.006000
-0.335416 -0.328560 0.014000
-0.399484 -0.344285 0.014000
-0.135814 -0.421420 -0.074000
-0.371433 -0.332406 0.014000
-0.459604 -0.372027 -0.002000
-0.123642 -0.381472 -0.166000
-0.291038 -0.240750 -0.218000
-0.211675 -0.389093 0.006000
-0.115831 -0.425506 -0.210000
-0.471209 -0.279976 -0.210000
-0.187762 -0.409196 -0.006000
-0.135573 -0.365420 -0.118000
-0.479346 -0.311941 -0.070000
-0.211658 -0.385093 0.006000
-0.135797 -0.417420 -0.070000
-0.135521 -0.353420 -0.142000
-0.119745 -0.405489 -0.218000
-0.251520 -0.352921 0.014000
-0.479484 -0.343941 -0.034000
-0.267056 -0.244854 -0.218000
-0.351106 -0.256492 -0.062000
-0.207675 -0.389110 0.006000
-0.107969 -0.457540 -0.174000
-0.183263 -0.293214 -0.218000
-0.335382 -0.320561 0.014000
-0.331382 -0.320578 0.014000
-0.187762 -0.409196 -0.002000
-0.155796 -0.417334 -0.034000
-0.391037 -0.240320 -0.118000
-0.471191 -0.275976 -0.210000
-0.351003 -0.232493 -0.218000
-0.271038 -0.240837 -0.218000
-0.359003 -0.232458 -0.218000
-0.391416 -0.328320 0.014000
-0.115745 -0.405506 -0.218000
-0.335365 -0.316561 0.014000
-0.483312 -0.303924 -0.078000
-0.267038 -0.240854 -0.218000
-0.215125 -0.261077 -0.142000
-0.123573 -0.365472 -0.190000
-0.219108 -0.257060 -0.190000
-0.103969 -0.457557 -0.178000
-0.147418 -0.329369 -0.218000
-0.447553 -0.360078 0.010000
-0.479501 -0.347941 -0.022000
-0.119814 -0.421489 -0.090000
-0.379003 -0.232372 -0.218000
-0.103917 -0.445557 -0.194000
-0.247142 -0.264940 -0.070000
-0.479432 -0.331941 -0.034000
-0.199658 -0.385145 0.006000
-0.343347 -0.312526 0.014000
-0.286987 -0.228768 -0.190000
-0.267124 -0.260854 -0.062000
-0.383003 -0.232355 -0.218000
-0.351347 -0.312492 0.014000
-0.179762 -0.409231 -0.002000
-0.310986 -0.228665 -0.218000
-0.443518 -0.352096 0.010000
-0.347072 -0.248510 -0.062000
-0.491312 -0.303890 -0.082000
-0.195676 -0.389162 0.006000
-0.415037 -0.240217 -0.218000
-0.443501 -0.348096 0.010000
-0.443501 -0.348096 0.010000
-0.374986 -0.228389 -0.218000
-0.139401 -0.325403 -0.186000
-0.499277 -0.295855 -0.110000
-0.459123 -0.260028 -0.218000
-0.151796 -0.417351 -0.026000
-0.243107 -0.256957 -0.082000
-0.290987 -0.228751 -0.218000
-0.139401 -0.325403 -0.190000
-0.203125 -0.261129 -0.190000
-0.359330 -0.308457 0.014000
-0.459536 -0.356027 0.006000
-0.103900 -0.441557 -0.122000
-0.279004 -0.232802 -0.114000
-0.307330 -0.308681 0.014000
-0.382986 -0.228355 -0.218000
-0.443484 -0.344096 0.010000
-0.451518 -0.352061 0.010000
-0.115590 -0.369506 -0.146000
-0.491277 -0.295890 -0.086000
-0.323313 -0.304612 0.014000
-0.283348 -0.312784 0.014000
-0.131470 -0.341438 -0.218000
-0.175228 -0.285249 -0.218000
-0.443467 -0.340096 0.010000
-0.451501 -0.348061 0.010000
-0.095969 -0.457591 -0.162000
-0.239142 -0.264974 -0.062000
-0.219090 -0.253060 -0.118000
-0.475329 -0.307958 -0.042000
-0.267004 -0.232854 -0.114000
-0.479226 -0.283942 -0.082000
-0.290969 -0.224751 -0.218000
-0.346952 -0.220510 -0.218000
-0.395347 -0.312303 0.014000
-0.247021 -0.236940 -0.218000
-0.479260 -0.291941 -0.066000
-0.443450 -0.336096 0.010000
-0.447415 -0.328079 0.002000
-0.243417 -0.328956 0.014000
-0.143366 -0.317386 -0.218000
-0.455467 -0.340044 0.006000
-0.479277 -0.295941 -0.058000
-0.479140 -0.263942 -0.206000
-0.191641 -0.381179 0.010000
-0.175332 -0.309249 -0.062000
-0.231142 -0.265008 -0.062000
-0.262970 -0.224871 -0.190000
-0.467105 -0.255993 -0.218000
-0.407347 -0.312251 0.014000
-0.223039 -0.241043 -0.146000
-0.111556 -0.361524 -0.150000
-0.115642 -0.381506 -0.094000
-0.342934 -0.216527 -0.218000
-0.335021 -0.236561 -0.062000
-0.479208 -0.279942 -0.078000
-0.207073 -0.249112 -0.194000
-0.314935 -0.216647 -0.218000
-0.387278 -0.296337 0.010000
-0.411071 -0.248234 -0.062000
-0.402968 -0.224269 -0.218000
-0.219469 -0.341059 0.014000
-0.323261 -0.292612 0.014000
-0.243004 -0.232957 -0.218000
-0.095900 -0.441592 -0.114000
-0.479260 -0.291941 -0.054000
-0.479380 -0.319941 -0.022000
-0.107556 -0.361541 -0.154000
-0.159762 -0.409317 -0.002000
-0.159762 -0.409317 -0.002000
-0.307262 -0.292681 0.014000
-0.179280 -0.297232 -0.062000
-0.231004 -0.233009 -0.142000
-0.290935 -0.216751 -0.218000
-0.291021 -0.236751 -0.062000
-0.499191 -0.275856 -0.118000
-0.331244 -0.288578 0.014000
-0.479346 -0.311941 -0.026000
-0.115470 -0.341507 -0.190000
-0.235383 -0.320991 0.014000
-0.431347 -0.312148 0.010000
-0.119470 -0.341489 -0.218000
-0.487122 -0.259907 -0.202000
-0.266935 -0.216854 -0.190000
-0.095866 -0.433592 -0.102000
-0.091866 -0.433609 -0.118000
-0.091831 -0.425609 -0.218000
-0.483208 -0.279924 -0.070000
-0.390934 -0.216321 -0.218000
-0.087900 -0.441626 -0.206000
-0.250970 -0.224923 -0.218000
-0.095866 -0.433592 -0.098000
-0.499174 -0.271856 -0.118000
-0.083969 -0.457643 -0.162000
-0.099642 -0.381575 -0.218000
-0.259296 -0.300888 0.014000
-0.411037 -0.240234 -0.062000
-0.219022 -0.237060 -0.218000
-0.115435 -0.333507 -0.190000
-0.111590 -0.369523 -0.090000
-0.367209 -0.280423 0.010000
-0.111470 -0.341524 -0.142000
-0.402934 -0.216269 -0.218000
-0.227004 -0.233026 -0.118000
-0.459363 -0.316027 0.002000
-0.235348 -0.312991 0.014000
-0.242970 -0.224957 -0.218000
-0.275004 -0.232819 -0.066000
-0.426968 -0.224166 -0.218000
-0.479294 -0.299941 -0.030000
-0.479294 -0.299941 -0.030000
-0.215022 -0.237077 -0.218000
-0.083952 -0.453643 -0.130000
-0.179572 -0.365231 0.010000
-0.222987 -0.229043 -0.142000
-0.390917 -0.212321 -0.118000
-0.274918 -0.212820 -0.218000
-0.091849 -0.429609 -0.098000
-0.127367 -0.317455 -0.118000
-0.159194 -0.277318 -0.218000
-0.159315 -0.305318 -0.062000
-0.378900 -0.208372 -0.218000
-0.290900 -0.208751 -0.218000
-0.083935 -0.449643 -0.122000
-0.407003 -0.232252 -0.066000
-0.191504 -0.349180 0.014000
-0.335193 -0.276561 0.014000
-0.347175 -0.272509 0.010000
-0.347175 -0.272509 0.010000
-0.099573 -0.365575 -0.218000
-0.419278 -0.296199 0.014000
-0.235039 -0.240991 -0.070000
-0.366883 -0.204424 -0.218000
-0.479312 -0.303941 -0.018000
-0.491088 -0.251890 -0.202000
-0.383192 -0.276354 0.010000
-0.475329 -0.307958 -0.010000
-0.163659 -0.385300 0.010000
-0.115384 -0.321507 -0.190000
-0.127332 -0.309455 -0.218000
-0.371175 -0.272406 0.010000
-0.258918 -0.212888 -0.218000
-0.107470 -0.341541 -0.218000
-0.290883 -0.204751 -0.218000
-0.247021 -0.236940 -0.062000
-0.459002 -0.232028 -0.218000
-0.131779 -0.413437 -0.014000
-0.262987 -0.228871 -0.066000
-0.127470 -0.341455 -0.062000
-0.222970 -0.225043 -0.218000
-0.135280 -0.297421 -0.114000
-0.163143 -0.265301 -0.218000
-0.419003 -0.232200 -0.062000
-0.079900 -0.441660 -0.114000
-0.191452 -0.337180 0.014000
-0.298866 -0.200716 -0.218000
-0.335158 -0.268561 0.014000
-0.291176 -0.272750 0.014000
-0.355141 -0.264475 0.010000
-0.495105 -0.255873 -0.106000
-0.234935 -0.216992 -0.218000
-0.487122 -0.259907 -0.078000
-0.414899 -0.208217 -0.218000
-0.091797 -0.417609 -0.074000
-0.271176 -0.272836 0.010000
-0.479071 -0.247942 -0.090000
-0.219314 -0.305060 0.014000
-0.479157 -0.267942 -0.050000
-0.370934 -0.216407 -0.062000
-0.414899 -0.208217 -0.118000
-0.071918 -0.445695 -0.202000
-0.366848 -0.196424 -0.218000
-0.430916 -0.212149 -0.218000
-0.075814 -0.421678 -0.218000
-0.238987 -0.228974 -0.070000
-0.163555 -0.361300 0.010000
-0.311141 -0.264664 0.014000
-0.463260 -0.292010 -0.002000
-0.211314 -0.305094 0.014000
-0.343124 -0.260527 0.014000
-0.267159 -0.268853 0.010000
-0.391140 -0.264320 0.010000
-0.071935 -0.449695 -0.118000
-0.159211 -0.281318 -0.066000
-0.394934 -0.216303 -0.062000
-0.079831 -0.425661 -0.090000
-0.155125 -0.261335 -0.218000
-0.427192 -0.276165 0.010000
-0.331107 -0.256578 0.014000
-0.194987 -0.229163 -0.218000
-0.063969 -0.457729 -0.178000
-0.414865 -0.200218 -0.218000
-0.426882 -0.204166 -0.218000
-0.390917 -0.212321 -0.062000
-0.318814 -0.188631 -0.218000
-0.147143 -0.265370 -0.218000
-0.175039 -0.241249 -0.218000
-0.470968 -0.223976 -0.218000
-0.382900 -0.208355 -0.066000
-0.271124 -0.260836 0.010000
-0.123229 -0.285473 -0.150000
-0.115762 -0.409506 -0.014000
-0.067918 -0.445712 -0.114000
-0.071728 -0.401695 -0.218000
-0.278832 -0.192803 -0.218000
-0.426899 -0.208166 -0.098000
-0.187091 -0.253198 -0.062000
-0.371089 -0.252406 0.010000
-0.479174 -0.271942 -0.026000
-0.067814 -0.421712 -0.218000
-0.103367 -0.317558 -0.218000
-0.434882 -0.204131 -0.218000
-0.147125 -0.261370 -0.218000
-0.355072 -0.248475 0.010000
-0.059969 -0.457746 -0.166000
-0.123367 -0.317472 -0.062000
-0.330797 -0.184579 -0.218000
-0.414848 -0.196218 -0.218000
-0.059969 -0.457746 -0.158000
-0.334866 -0.200562 -0.066000
-0.342797 -0.184527 -0.218000
-0.115418 -0.329507 -0.062000
-0.103780 -0.413557 -0.026000
-0.107298 -0.301541 -0.190000
-0.059969 -0.457746 -0.194000
-0.438916 -0.212114 -0.090000
-0.179005 -0.233232 -0.218000
-0.451191 -0.276062 0.006000
-0.483071 -0.247925 -0.062000
-0.067883 -0.437712 -0.102000
-0.290883 -0.204751 -0.062000
-0.262832 -0.192871 -0.218000
-0.334866 -0.200562 -0.062000
-0.450899 -0.208063 -0.218000
-0.479208 -0.279942 -0.010000
-0.322866 -0.200613 -0.062000
-0.315072 -0.248647 0.014000
-0.115263 -0.293507 -0.218000
-0.474950 -0.219959 -0.218000
-0.471209 -0.279976 -0.002000
-0.059969 -0.457746 -0.130000
-0.479157 -0.267942 -0.022000
-0.103332 -0.309558 -0.218000
-0.099332 -0.309576 -0.194000
-0.099780 -0.413575 -0.026000
-0.470933 -0.215977 -0.218000
-0.326780 -0.180596 -0.218000
-0.091797 -0.417609 -0.038000
-0.147521 -0.353369 0.010000
-0.211228 -0.285094 0.014000
-0.402882 -0.204269 -0.066000
-0.055969 -0.457764 -0.194000
-0.119246 -0.289490 -0.106000
-0.099470 -0.341575 -0.070000
-0.227176 -0.273025 0.014000
-0.147504 -0.349369 0.010000
-0.467191 -0.275993 0.002000
-0.099780 -0.413575 -0.022000
-0.307055 -0.244682 0.014000
-0.406865 -0.200252 -0.074000
-0.115349 -0.313507 -0.066000
-0.206901 -0.209112 -0.218000
-0.255090 -0.252905 0.010000
-0.103298 -0.301558 -0.218000
-0.079797 -0.417661 -0.054000
-0.323038 -0.240613 0.014000
-0.375037 -0.240389 0.010000
-0.051969 -0.457781 -0.174000
-0.051935 -0.449781 -0.170000
-0.442882 -0.204097 -0.094000
-0.179314 -0.305232 0.014000
-0.183297 -0.301214 0.014000
-0.171349 -0.313266 0.014000
-0.059728 -0.401747 -0.218000
-0.079487 -0.345661 -0.110000
-0.067591 -0.369713 -0.218000
-0.190987 -0.229181 -0.074000
-0.107384 -0.321541 -0.062000
-0.479122 -0.259942 -0.018000
-0.178953 -0.221232 -0.218000
-0.347020 -0.236510 0.014000
-0.319021 -0.236630 0.014000
-0.119298 -0.301490 -0.062000
-0.091504 -0.349610 -0.062000
-0.338745 -0.172545 -0.218000
-0.431088 -0.252148 0.010000
-0.290832 -0.192751 -0.062000
-0.063797 -0.417729 -0.082000
-0.342728 -0.168528 -0.190000
-0.474899 -0.207959 -0.218000
-0.486950 -0.219908 -0.102000
-0.091332 -0.309610 -0.218000
-0.075470 -0.341679 -0.118000
-0.055728 -0.401764 -0.218000
-0.071625 -0.377695 -0.082000
-0.235090 -0.252991 0.010000
-0.335003 -0.232561 0.014000
-0.227108 -0.257026 0.010000
-0.207177 -0.273111 0.014000
-0.059642 -0.381747 -0.218000
-0.302728 -0.168700 -0.190000
-0.047918 -0.445798 -0.206000
-0.107350 -0.313541 -0.062000
-0.123607 -0.373472 0.010000
-0.478899 -0.207942 -0.218000
-0.490933 -0.215891 -0.118000
-0.479036 -0.239942 -0.038000
-0.378745 -0.172373 -0.218000
-0.290746 -0.172751 -0.218000
-0.115177 -0.273507 -0.118000
-0.299004 -0.232716 0.014000
0.215968 0.457075 -0.186000
0.199968 0.457144 -0.182000
0.195968 0.457161 -0.190000
0.235968 0.456989 -0.194000
0.195968 0.457161 -0.194000
0.199951 0.453144 -0.202000
0.215916 0.445075 -0.206000
0.195968 0.457161 -0.198000
0.239968 0.456972 -0.194000
0.191968 0.457179 -0.174000
0.187968 0.457196 -0.186000
0.215882 0.437076 -0.206000
0.239968 0.456972 -0.158000
0.179968 0.457230 -0.174000
0.211847 0.429093 -0.214000
0.175968 0.457247 -0.194000
0.183968 0.457213 -0.158000
0.187865 0.433196 -0.210000
0.239830 0.424972 -0.210000
0.247864 0.432938 -0.210000
0.259950 0.452886 -0.202000
0.167968 0.457282 -0.190000
0.211951 0.453093 -0.138000
0.187848 0.429196 -0.214000
0.255950 0.452903 -0.158000
0.175899 0.441248 -0.210000
0.267967 0.456852 -0.198000
0.163951 0.453299 -0.202000
0.207779 0.413110 -0.218000
0.243796 0.416955 -0.214000
0.167882 0.437282 -0.210000
0.187968 0.457196 -0.134000
0.163900 0.441299 -0.210000
0.235933 0.448989 -0.130000
0.275967 0.456817 -0.194000
0.275967 0.456817 -0.170000
0.275933 0.448817 -0.202000
0.263933 0.448869 -0.146000
0.151968 0.457351 -0.190000
0.195744 0.405162 -0.218000
0.275916 0.444817 -0.206000
0.195916 0.445161 -0.126000
0.179968 0.457230 -0.130000
0.271916 0.444835 -0.150000
0.251761 0.408921 -0.218000
0.171968 0.457265 -0.134000
0.167968 0.457282 -0.134000
0.219693 0.393059 -0.218000
0.283916 0.444783 -0.206000
0.255933 0.448903 -0.126000
0.259744 0.404887 -0.214000
0.243744 0.404955 -0.142000
0.143969 0.457385 -0.170000
0.231692 0.393007 -0.150000
0.215675 0.389076 -0.218000
0.243899 0.440955 -0.118000
0.219675 0.389059 -0.218000
0.183865 0.433213 -0.122000
0.183727 0.401214 -0.146000
0.219865 0.433058 -0.114000
0.203675 0.389128 -0.218000
0.199676 0.389145 -0.218000
0.199676 0.389145 -0.218000
0.175745 0.405248 -0.142000
0.295967 0.456731 -0.190000
0.207865 0.433110 -0.110000
0.159968 0.457316 -0.126000
0.239882 0.436972 -0.110000
0.231675 0.389007 -0.142000
0.163934 0.449299 -0.122000
0.271744 0.404835 -0.218000
0.263709 0.396869 -0.218000
0.259692 0.392887 -0.218000
0.131969 0.457437 -0.186000
0.131969 0.457437 -0.182000
0.143969 0.457385 -0.142000
0.291864 0.432749 -0.214000
0.259709 0.396887 -0.146000
0.143831 0.425385 -0.218000
0.295898 0.440731 -0.210000
0.227658 0.385024 -0.142000
0.223624 0.377042 -0.218000
0.303967 0.456697 -0.182000
0.127969 0.457454 -0.182000
0.279933 0.448800 -0.126000
0.227865 0.433024 -0.102000
0.135883 0.437420 -0.218000
0.139831 0.425403 -0.218000
0.163917 0.445299 -0.114000
0.139969 0.457402 -0.138000
0.143779 0.413385 -0.218000
0.187624 0.377197 -0.218000
0.203607 0.373128 -0.218000
0.167917 0.445282 -0.110000
0.287761 0.408766 -0.218000
0.123969 0.457471 -0.194000
0.251623 0.376921 -0.218000
0.251623 0.376921 -0.218000
0.215589 0.369076 -0.218000
0.255899 0.440903 -0.102000
0.279692 0.392801 -0.218000
0.259899 0.440886 -0.102000
0.147951 0.453368 -0.118000
0.307967 0.456680 -0.154000
0.127848 0.429454 -0.218000
0.179813 0.421231 -0.102000
0.255606 0.372904 -0.218000
0.135762 0.409420 -0.218000
0.251572 0.364921 -0.190000
0.119952 0.453488 -0.210000
0.307933 0.448680 -0.146000
0.243830 0.424955 -0.094000
0.255589 0.368904 -0.218000
0.167607 0.373283 -0.218000
0.271623 0.376835 -0.218000
0.267606 0.372853 -0.218000
0.123814 0.421471 -0.218000
0.287675 0.388766 -0.218000
0.263589 0.368870 -0.218000
0.223830 0.425041 -0.086000
0.319932 0.448628 -0.202000
0.151659 0.385351 -0.142000
0.115883 0.437506 -0.218000
0.235830 0.424990 -0.086000
0.127745 0.405454 -0.218000
0.135934 0.449419 -0.114000
0.323967 0.456611 -0.178000
0.139659 0.385403 -0.218000
0.323915 0.444611 -0.202000
0.319864 0.432628 -0.214000
0.163813 0.421299 -0.094000
0.143900 0.441385 -0.102000
0.327967 0.456594 -0.194000
0.255537 0.356904 -0.218000
0.107969 0.457540 -0.154000
0.223503 0.349042 -0.218000
0.315778 0.412646 -0.218000
0.239847 0.428972 -0.078000
0.239847 0.428972 -0.078000
0.207813 0.421110 -0.078000
0.171555 0.361265 -0.142000
0.175796 0.417248 -0.086000
0.179779 0.413231 -0.086000
0.203572 0.365128 -0.118000
0.115762 0.409506 -0.218000
0.099969 0.457574 -0.182000
0.135917 0.445420 -0.102000
0.331950 0.452576 -0.198000
0.251675 0.388921 -0.098000
0.199486 0.345145 -0.218000
0.279812 0.420800 -0.094000
0.255675 0.388904 -0.098000
0.151796 0.417351 -0.094000
0.311743 0.404663 -0.138000
0.127917 0.445454 -0.106000
0.135917 0.445420 -0.098000
0.119693 0.393489 -0.218000
0.335950 0.452559 -0.198000
0.335950 0.452559 -0.198000
0.179796 0.417231 -0.078000
0.323778 0.412611 -0.218000
0.287572 0.364767 -0.218000
0.179486 0.345231 -0.218000
0.195469 0.341162 -0.218000
0.303847 0.428697 -0.106000
0.155865 0.433334 -0.082000
0.167504 0.349283 -0.218000
0.255830 0.424904 -0.074000
0.287847 0.428766 -0.090000
0.095935 0.449592 -0.214000
0.159865 0.433316 -0.078000
0.255813 0.420904 -0.074000
0.311675 0.388663 -0.146000
0.319898 0.440628 -0.118000
0.327950 0.452594 -0.130000
0.215813 0.421076 -0.066000
0.159504 0.349317 -0.218000
0.339949 0.452542 -0.162000
0.239452 0.336973 -0.218000
0.131607 0.373437 -0.142000
0.279589 0.368801 -0.118000
0.207624 0.377111 -0.086000
0.303589 0.368698 -0.218000
0.299571 0.364715 -0.218000
0.315674 0.388646 -0.142000
0.259606 0.372887 -0.098000
0.191435 0.333180 -0.218000
0.207607 0.373111 -0.086000
0.187452 0.337197 -0.142000
0.327760 0.408594 -0.138000
0.307829 0.424680 -0.098000
0.087969 0.457626 -0.154000
0.135538 0.357420 -0.218000
0.203417 0.329128 -0.218000
0.347949 0.452508 -0.198000
0.231417 0.329008 -0.218000
0.151487 0.345352 -0.218000
0.203589 0.369128 -0.086000
0.111642 0.381523 -0.150000
0.219796 0.417059 -0.058000
0.083883 0.437643 -0.202000
0.331743 0.404577 -0.142000
0.087849 0.429626 -0.218000
0.179796 0.417231 -0.062000
0.343967 0.456525 -0.142000
0.339777 0.412542 -0.218000
0.163813 0.421299 -0.066000
0.343829 0.424525 -0.218000
0.323640 0.380612 -0.218000
0.219400 0.325059 -0.218000
0.291520 0.352749 -0.142000
0.339949 0.452542 -0.130000
0.079969 0.457660 -0.194000
0.179435 0.333231 -0.142000
0.223658 0.385042 -0.070000
0.219813 0.421058 -0.054000
0.223813 0.421041 -0.054000
0.151814 0.421351 -0.070000
0.351967 0.456490 -0.166000
0.199813 0.421145 -0.054000
0.175400 0.325249 -0.190000
0.163435 0.333300 -0.218000
0.187813 0.421196 -0.054000
0.215383 0.321077 -0.218000
0.111590 0.369523 -0.218000
0.075969 0.457678 -0.186000
0.355967 0.456473 -0.190000
0.099883 0.437574 -0.110000
0.323606 0.372612 -0.218000
0.079969 0.457660 -0.150000
0.179383 0.321231 -0.190000
0.159504 0.349317 -0.114000
0.107866 0.433540 -0.098000
0.163435 0.333300 -0.142000
0.239606 0.372973 -0.074000
0.155521 0.353334 -0.110000
0.075900 0.441678 -0.206000
0.351846 0.428491 -0.218000
0.123521 0.353472 -0.218000
0.107608 0.373541 -0.146000
0.107590 0.369541 -0.154000
0.211366 0.317094 -0.218000
0.167401 0.325283 -0.218000
0.079969 0.457660 -0.138000
0.359967 0.456456 -0.178000
0.339898 0.440542 -0.114000
0.307675 0.388680 -0.098000
0.331640 0.380577 -0.146000
0.131814 0.421437 -0.074000
0.147435 0.333369 -0.218000
0.119521 0.353489 -0.218000
0.347932 0.448508 -0.126000
0.159418 0.329317 -0.146000
0.123504 0.349472 -0.218000
0.335829 0.424560 -0.110000
0.335881 0.436559 -0.106000
0.215796 0.417076 -0.046000
0.319571 0.364629 -0.142000
0.311812 0.420663 -0.082000
0.111866 0.433523 -0.086000
0.279434 0.332801 -0.142000
0.079780 0.413661 -0.218000
0.339657 0.384543 -0.154000
0.215349 0.313077 -0.218000
0.331623 0.376577 -0.142000
0.243589 0.368956 -0.070000
0.295623 0.376732 -0.090000
0.087677 0.389627 -0.218000
0.351932 0.448491 -0.126000
0.271400 0.324836 -0.146000
0.067969 0.457712 -0.166000
0.131453 0.337438 -0.218000
0.291503 0.348749 -0.114000
0.355949 0.452473 -0.130000
0.139487 0.345403 -0.118000
0.071969 0.457695 -0.138000
0.231331 0.309008 -0.218000
0.283520 0.352784 -0.098000
0.283520 0.352784 -0.098000
0.223813 0.421041 -0.038000
0.355898 0.440473 -0.126000
0.067849 0.429712 -0.214000
0.063969 0.457729 -0.166000
0.367949 0.452422 -0.210000
0.135435 0.333421 -0.142000
0.079900 0.441660 -0.114000
0.271417 0.328836 -0.118000
0.363812 0.420439 -0.218000
0.203366 0.317128 -0.118000
0.363966 0.456439 -0.134000
0.067935 0.449712 -0.134000
0.339795 0.416542 -0.098000
0.299812 0.420714 -0.058000
0.139452 0.337403 -0.118000
0.255813 0.420904 -0.038000
0.083625 0.377644 -0.218000
0.083625 0.377644 -0.218000
0.363777 0.412439 -0.218000
0.067918 0.445712 -0.130000
0.367966 0.456422 -0.138000
0.367812 0.420422 -0.218000
0.171796 0.417265 -0.038000
0.143590 0.369386 -0.074000
0.187796 0.417196 -0.034000
0.263813 0.420869 -0.038000
0.263813 0.420869 -0.038000
0.203297 0.301128 -0.218000
0.067952 0.453712 -0.126000
0.095556 0.361592 -0.142000
0.075900 0.441678 -0.110000
0.259572 0.364887 -0.062000
0.371846 0.428405 -0.218000
0.107831 0.425540 -0.070000
0.123814 0.421471 -0.058000
0.267537 0.356853 -0.070000
0.135814 0.421420 -0.050000
0.267554 0.360853 -0.066000
0.127470 0.341455 -0.114000
0.107814 0.421540 -0.070000
0.351605 0.372491 -0.218000
0.211280 0.297094 -0.218000
0.183813 0.421213 -0.030000
0.251297 0.300922 -0.218000
0.291812 0.420749 -0.046000
0.375915 0.444387 -0.218000
0.155814 0.421334 -0.038000
0.079625 0.377661 -0.142000
0.379966 0.456370 -0.186000
0.051969 0.457781 -0.186000
0.051969 0.457781 -0.178000
0.107453 0.337541 -0.218000
0.267813 0.420852 -0.034000
0.123814 0.421471 -0.054000
0.143814 0.421385 -0.042000
0.375794 0.416388 -0.190000
0.163796 0.417299 -0.034000
0.055969 0.457764 -0.142000
0.271537 0.356835 -0.066000
0.063935 0.449729 -0.118000
0.375760 0.408388 -0.186000
0.375760 0.408388 -0.190000
0.151332 0.309352 -0.142000
0.303589 0.368698 -0.074000
0.267537 0.356853 -0.062000
0.183796 0.417213 -0.026000
0.383966 0.456353 -0.190000
0.131797 0.417437 -0.046000
0.303434 0.332698 -0.114000
0.315640 0.380646 -0.074000
0.151366 0.317352 -0.118000
0.347777 0.412508 -0.090000
0.203796 0.417127 -0.022000
0.319795 0.416628 -0.058000
0.359605 0.372457 -0.218000
0.107625 0.377541 -0.082000
0.059711 0.397747 -0.218000
0.123367 0.317472 -0.218000
0.103642 0.381558 -0.082000
0.047901 0.441798 -0.214000
0.311451 0.336664 -0.110000
0.287365 0.316767 -0.118000
0.047969 0.457798 -0.150000
0.347812 0.420508 -0.082000
0.347812 0.420508 -0.082000
0.143814 0.421385 -0.034000
0.119384 0.321490 -0.142000
0.103487 0.345558 -0.118000
0.043969 0.457815 -0.198000
0.339777 0.412542 -0.074000
0.315623 0.376646 -0.070000
0.367880 0.436422 -0.106000
0.283348 0.312784 -0.118000
0.299331 0.308715 -0.218000
0.299331 0.308715 -0.218000
0.059677 0.389747 -0.218000
0.075814 0.421678 -0.090000
0.155332 0.309335 -0.118000
0.087814 0.421626 -0.074000
0.111384 0.321524 -0.218000
0.083659 0.385644 -0.098000
0.351777 0.412491 -0.086000
0.315606 0.372646 -0.070000
0.367622 0.376422 -0.218000
0.243451 0.336956 -0.062000
0.103470 0.341558 -0.118000
0.051746 0.405781 -0.218000
0.207228 0.285111 -0.218000
0.095453 0.337593 -0.142000
0.047797 0.417798 -0.218000
0.363812 0.420439 -0.098000
0.379949 0.452370 -0.122000
0.379949 0.452370 -0.122000
0.379915 0.444370 -0.122000
0.279503 0.348801 -0.062000
0.383949 0.452353 -0.130000
0.243228 0.284957 -0.218000
0.315606 0.372646 -0.066000
0.391966 0.456318 -0.210000
0.107436 0.333541 -0.118000
0.059883 0.437746 -0.102000
0.335416 0.328560 -0.218000
0.251228 0.284922 -0.218000
0.295812 0.420732 -0.030000
0.063608 0.373730 -0.142000
0.159297 0.301318 -0.118000
0.103453 0.337558 -0.114000
0.303812 0.420697 -0.034000
0.099814 0.421575 -0.054000
0.331812 0.420577 -0.054000
0.199211 0.281146 -0.218000
0.035970 0.457850 -0.194000
0.179796 0.417231 -0.014000
0.379674 0.388371 -0.218000
0.035970 0.457850 -0.174000
0.363794 0.416439 -0.090000
0.263228 0.284871 -0.218000
0.363536 0.356440 -0.218000
0.203383 0.321128 -0.066000
0.391966 0.456318 -0.138000
0.295812 0.420732 -0.026000
0.303812 0.420697 -0.030000
0.275451 0.336818 -0.062000
0.263795 0.416869 -0.014000
0.139315 0.305404 -0.118000
0.379898 0.440370 -0.106000
0.287795 0.416766 -0.022000
0.287795 0.416766 -0.022000
0.395966 0.456301 -0.150000
0.387915 0.444336 -0.122000
0.279451 0.336801 -0.062000
0.387897 0.440336 -0.122000
0.063539 0.357730 -0.218000
0.199383 0.321145 -0.062000
0.103350 0.313558 -0.218000
0.159796 0.417317 -0.014000
0.107350 0.313541 -0.142000
0.059849 0.429747 -0.090000
0.219779 0.413059 -0.006000
0.275434 0.332818 -0.062000
0.275434 0.332818 -0.062000
0.115539 0.357506 -0.066000
0.119521 0.353489 -0.066000
0.119521 0.353489 -0.066000
0.143246 0.289387 -0.218000
0.191383 0.321180 -0.062000
0.163418 0.329300 -0.062000
0.055591 0.369764 -0.150000
0.395966 0.456301 -0.138000
0.063539 0.357730 -0.146000
0.135797 0.417420 -0.022000
0.115487 0.345506 -0.074000
0.319812 0.420628 -0.034000
0.279795 0.416800 -0.014000
0.179194 0.277232 -0.146000
0.111556 0.361524 -0.062000
0.067488 0.345713 -0.218000
0.107332 0.309541 -0.142000
0.123504 0.349472 -0.062000
0.155211 0.281335 -0.218000
0.251193 0.276922 -0.142000
0.215779 0.413076 -0.002000
0.211779 0.413093 -0.002000
0.083470 0.341644 -0.114000
0.079814 0.421661 -0.058000
0.375863 0.432387 -0.086000
0.391915 0.444319 -0.114000
0.231761 0.409007 -0.002000
0.095401 0.325593 -0.118000
0.243778 0.412955 -0.002000
0.391674 0.388319 -0.218000
0.115281 0.297507 -0.218000
0.283210 0.280785 -0.218000
0.263193 0.276871 -0.142000
0.171762 0.409265 -0.006000
0.067814 0.421712 -0.070000
0.099814 0.421575 -0.038000
0.103315 0.305558 -0.218000
0.063488 0.345730 -0.218000
0.143263 0.293387 -0.118000
0.247778 0.412938 -0.002000
