-0.039818 -0.339232 -0.001072
-0.249212 -0.404275 -0.038055
-0.183697 -0.369235 -0.001295
-0.079824 -0.184236 -0.204483
-0.107878 -0.319295 -0.000894
0.076477 -0.274928 -0.129755
-0.317930 -0.425236 -0.129753
-0.123140 -0.252387 -0.050223
0.075264 -0.369919 -0.050223
0.121598 -0.349237 -0.129755
-0.006373 -0.355104 -0.001295
-0.303873 -0.394139 -0.098052
-0.236675 -0.227423 -0.204483
-0.278666 -0.266353 -0.204483
-0.137307 -0.319365 -0.000706
0.046305 -0.222168 -0.204483
-0.058175 -0.246926 -0.050223
0.106561 -0.277050 -0.204483
0.007653 -0.271925 -0.050223
-0.241818 -0.319690 -0.050223
-0.318562 -0.373141 -0.129753
0.044306 -0.301917 -0.050223
-0.334309 -0.444840 -0.162587
-0.281767 -0.404135 -0.056106
-0.008793 -0.189572 -0.204483
-0.130554 -0.193705 -0.129755
-0.232094 -0.400389 -0.010436
-0.260982 -0.342016 -0.050223
-0.295463 -0.304728 -0.129755
-0.345356 -0.423498 -0.204483
-0.090577 -0.292376 -0.001228
0.133360 -0.405921 -0.099943
-0.044710 -0.175322 -0.204483
-0.095076 -0.232771 -0.050223
-0.168834 -0.314841 -0.000623
0.099084 -0.405773 -0.048028
0.110753 -0.294975 -0.129755
-0.047122 -0.294646 -0.000466
-0.172937 -0.247083 -0.050223
-0.313043 -0.292028 -0.204483
0.004454 -0.322994 -0.000763
0.077283 -0.405680 -0.021882
-0.094298 -0.180481 -0.129755
-0.033283 -0.187485 -0.129755
-0.018179 -0.301087 -0.000466
0.151814 -0.329855 -0.204483
-0.125229 -0.165068 -0.204483
-0.224960 -0.356686 -0.000908
-0.241786 -0.283491 -0.050223
-0.128562 -0.220740 -0.050223
0.160593 -0.443391 -0.129753
0.175252 -0.398172 -0.204483
0.176294 -0.441968 -0.204483
-0.213782 -0.252427 -0.050223
-0.346757 -0.442427 -0.129753
-0.125122 -0.266471 -0.001711
-0.006619 -0.228207 -0.050223
-0.333531 -0.334135 -0.129755
-0.345310 -0.403194 -0.118688
0.088241 -0.306721 -0.050223
0.066692 -0.374183 -0.001161
-0.223902 -0.324500 -0.000488
-0.040857 -0.213956 -0.050223
-0.346172 -0.320960 -0.204483
-0.234372 -0.205430 -0.129755
0.115083 -0.349979 -0.050223
0.056637 -0.339418 -0.000574
0.144442 -0.279853 -0.204483
-0.089327 -0.250574 -0.002077
0.042023 -0.181786 -0.204483
-0.364625 -0.365347 -0.204483
0.037289 -0.242500 -0.050223
0.164131 -0.352042 -0.129755
-0.303205 -0.263428 -0.129755
-0.180628 -0.159432 -0.204483
-0.182805 -0.174856 -0.129755
0.173796 -0.405427 -0.126509
-0.278586 -0.296971 -0.050223
-0.025854 -0.257961 -0.000491
-0.203246 -0.282406 -0.000808
0.012001 -0.276164 -0.001137
0.133801 -0.390702 -0.050223
-0.300341 -0.332010 -0.050223
-0.082701 -0.141659 -0.204483
-0.376839 -0.432575 -0.204483
-0.109569 -0.195117 -0.050223
0.020018 -0.177033 -0.129753
-0.166094 -0.205205 -0.050223
-0.283238 -0.397547 -0.004920
-0.141473 -0.155634 -0.129755
0.103756 -0.232706 -0.129753
-0.269690 -0.357775 -0.001060
-0.213754 -0.164313 -0.204483
-0.256179 -0.186811 -0.204483
0.074888 -0.256758 -0.050223
0.111341 -0.217567 -0.204483
0.062140 -0.194504 -0.129755
0.195357 -0.447118 -0.172308
-0.055631 -0.233374 -0.000528
0.127204 -0.252741 -0.129753
-0.308985 -0.228373 -0.204483
-0.156195 -0.236792 -0.000586
0.006631 -0.147756 -0.204483
0.123919 -0.313389 -0.050223
0.203351 -0.411812 -0.204483
-0.078819 -0.143301 -0.129753
-0.222693 -0.172287 -0.129755
-0.328089 -0.403936 -0.036442
-0.228816 -0.219712 -0.050223
-0.376248 -0.399347 -0.129755
-0.010262 -0.191809 -0.050223
-0.286387 -0.215223 -0.129755
-0.331581 -0.360046 -0.050223
-0.367856 -0.346971 -0.129755
0.175573 -0.318457 -0.129755
-0.355672 -0.403817 -0.073632
-0.272538 -0.319708 -0.000559
-0.456145 -0.283459 -0.204483
-0.501031 -0.238614 -0.179209
-0.501236 -0.286285 -0.174936
-0.464767 -0.322381 -0.204483
-0.497748 -0.324863 -0.204483
-0.480788 -0.196861 -0.204483
-0.430417 -0.215043 -0.204483
-0.409277 -0.238413 -0.204483
-0.489331 -0.251453 -0.129753
-0.501398 -0.324001 -0.158809
-0.402047 -0.287243 -0.204483
-0.445367 -0.250389 -0.129755
-0.427384 -0.330856 -0.204483
-0.445195 -0.185626 -0.204483
-0.444940 -0.287825 -0.129753
-0.497410 -0.308910 -0.129753
-0.500807 -0.186650 -0.156761
-0.451834 -0.212211 -0.129755
-0.449861 -0.317841 -0.129755
-0.501533 -0.355378 -0.178322
-0.414130 -0.274190 -0.129755
-0.393482 -0.205360 -0.204483
-0.490820 -0.154965 -0.204483
-0.403563 -0.240968 -0.129755
-0.407189 -0.179020 -0.204483
-0.370701 -0.298568 -0.204483
-0.466159 -0.249509 -0.092780
-0.466466 -0.339341 -0.113672
-0.465291 -0.201655 -0.103213
-0.474792 -0.387938 -0.204483
-0.355931 -0.244059 -0.204483
-0.410168 -0.338478 -0.129755
-0.500630 -0.145523 -0.163317
-0.442701 -0.139423 -0.204483
-0.466371 -0.298950 -0.079899
-0.437430 -0.365875 -0.129755
-0.465690 -0.158930 -0.123075
-0.372039 -0.293205 -0.129755
-0.470411 -0.379124 -0.129753
-0.417681 -0.388510 -0.204483
-0.466015 -0.216110 -0.074394
-0.405138 -0.166876 -0.129753
-0.346172 -0.320960 -0.204483
-0.370813 -0.204619 -0.129753
-0.355760 -0.250550 -0.129755
-0.501764 -0.409163 -0.172303
-0.356140 -0.175456 -0.204483
-0.364625 -0.365347 -0.204483
-0.465850 -0.177736 -0.080137
-0.453282 -0.372857 -0.101048
-0.390583 -0.138223 -0.204483
-0.499054 -0.109536 -0.204483
-0.466182 -0.254979 -0.050522
-0.391327 -0.369387 -0.129755
-0.367856 -0.346971 -0.129755
-0.466265 -0.348620 -0.070151
-0.330304 -0.201301 -0.204483
-0.500475 -0.109440 -0.162193
-0.495627 -0.119214 -0.129753
-0.442908 -0.304151 -0.050223
-0.417566 -0.275849 -0.050223
-0.313043 -0.292028 -0.204483
-0.442490 -0.099088 -0.204483
-0.422460 -0.227669 -0.050223
-0.497539 -0.432658 -0.204483
-0.451658 -0.414743 -0.129753
-0.404250 -0.419559 -0.204483
-0.308985 -0.228373 -0.204483
-0.457844 -0.121661 -0.105344
-0.410862 -0.307678 -0.050223
-0.431490 -0.400677 -0.105138
-0.341989 -0.181812 -0.129753
-0.361628 -0.155418 -0.129755
-0.327911 -0.211057 -0.129755
-0.400423 -0.104218 -0.204483
-0.333531 -0.334135 -0.129755
-0.465931 -0.196660 -0.039918
-0.382332 -0.131839 -0.129753
-0.387374 -0.275279 -0.050223
-0.423944 -0.189753 -0.050223
-0.479572 -0.433157 -0.129753
-0.376248 -0.399347 -0.129755
-0.445512 -0.382187 -0.065623
-0.495824 -0.444145 -0.158521
-0.429069 -0.444432 -0.201196
-0.310521 -0.351164 -0.204483
-0.405196 -0.345966 -0.050223
-0.456910 -0.151888 -0.052907
-0.482394 -0.088563 -0.129753
-0.303205 -0.263428 -0.129755
-0.361549 -0.112133 -0.204483
-0.466323 -0.287659 -0.014456
-0.466494 -0.327465 -0.020981
-0.448923 -0.085375 -0.129755
-0.376839 -0.432575 -0.204483
-0.386834 -0.185594 -0.050223
-0.392764 -0.103632 -0.129755
-0.447790 -0.444352 -0.130036
-0.419579 -0.154476 -0.050223
-0.395425 -0.403646 -0.090450
-0.278666 -0.266353 -0.204483
-0.500283 -0.064782 -0.195704
-0.359190 -0.218875 -0.050223
-0.463595 -0.231192 -0.007487
-0.353496 -0.296485 -0.050223
-0.295463 -0.304728 -0.129755
-0.411966 -0.070173 -0.204483
-0.464521 -0.365758 -0.027484
-0.324485 -0.126698 -0.204483
-0.310585 -0.171228 -0.129755
-0.408004 -0.442698 -0.129753
-0.345356 -0.423498 -0.204483
-0.318562 -0.373141 -0.129753
-0.386908 -0.444614 -0.151107
-0.285941 -0.180838 -0.204483
-0.425170 -0.269562 -0.001141
-0.345310 -0.403194 -0.118688
-0.334449 -0.264881 -0.050223
-0.286387 -0.215223 -0.129755
-0.457587 -0.077923 -0.101970
-0.413148 -0.403570 -0.056135
-0.429212 -0.221209 -0.000728
-0.465429 -0.098163 -0.068199
-0.466576 -0.048148 -0.204483
-0.366128 -0.363056 -0.050223
-0.352646 -0.104640 -0.129755
-0.325913 -0.130083 -0.129753
-0.439162 -0.115120 -0.050223
-0.400296 -0.245192 -0.001679
-0.348066 -0.180634 -0.050223
-0.325732 -0.233396 -0.050223
-0.443069 -0.397393 -0.033198
-0.415280 -0.316285 -0.000498
-0.336786 -0.092990 -0.204483
-0.468032 -0.053788 -0.129753
-0.312060 -0.413554 -0.204483
-0.440835 -0.179496 -0.001179
-0.392173 -0.298143 -0.001255
-0.465703 -0.143706 -0.015996
-0.279803 -0.345996 -0.129755
-0.355672 -0.403817 -0.073632
-0.266145 -0.350513 -0.204483
-0.446385 -0.367236 -0.001766
-0.369157 -0.273315 -0.001671
-0.372355 -0.127847 -0.050223
-0.249292 -0.308471 -0.204483
-0.403755 -0.180059 -0.000746
-0.276172 -0.146777 -0.204483
-0.346757 -0.442427 -0.129753
-0.331581 -0.360046 -0.050223
-0.334309 -0.444840 -0.162587
-0.256179 -0.186811 -0.204483
-0.376644 -0.403727 -0.045606
-0.429126 -0.044760 -0.129755
-0.418084 -0.033447 -0.204483
-0.395815 -0.103424 -0.050223
-0.314824 -0.186455 -0.050223
-0.252706 -0.278022 -0.129755
-0.500115 -0.025714 -0.185657
-0.317930 -0.425236 -0.129753
-0.293923 -0.253953 -0.050223
-0.352503 -0.239324 -0.000988
-0.370447 -0.192569 -0.000480
-0.465228 -0.051565 -0.087741
-0.303873 -0.394139 -0.098052
-0.426291 -0.389276 -0.002926
-0.236675 -0.227423 -0.204483
-0.266091 -0.166178 -0.129755
-0.300341 -0.332010 -0.050223
-0.325247 -0.085288 -0.129755
-0.337016 -0.271644 -0.000785
-0.353310 -0.332178 -0.000917
-0.347254 -0.063789 -0.129755
-0.286303 -0.216501 -0.050223
-0.344377 -0.050425 -0.204483
-0.394216 -0.399708 -0.010445
-0.336335 -0.303920 -0.000466
-0.421293 -0.072530 -0.050223
-0.366955 -0.362175 -0.000934
-0.224371 -0.278205 -0.204483
-0.465358 -0.063351 -0.047796
-0.278586 -0.296971 -0.050223
-0.274845 -0.108949 -0.204483
-0.338883 -0.115275 -0.050223
-0.454420 -0.103016 -0.002990
-0.293063 -0.080919 -0.204483
-0.371640 -0.025204 -0.204483
-0.317225 -0.248388 -0.000671
-0.234372 -0.205430 -0.129755
-0.259129 -0.389627 -0.129753
-0.250308 -0.397300 -0.204483
-0.328089 -0.403936 -0.036442
-0.424803 -0.101475 -0.000993
-0.310122 -0.289207 -0.000466
-0.231789 -0.333497 -0.129753
-0.383169 -0.118771 -0.001580
-0.222750 -0.289836 -0.129753
-0.451199 -0.007255 -0.129755
-0.342370 -0.154545 -0.001040
-0.356999 -0.395431 -0.004582
-0.221822 -0.349437 -0.204483
-0.277106 -0.445086 -0.198008
-0.437611 0.005324 -0.204483
-0.397641 -0.003699 -0.204483
-0.291082 -0.140817 -0.050223
-0.309856 -0.329015 -0.000902
-0.476730 0.013124 -0.204483
-0.446692 -0.036326 -0.050223
-0.375409 -0.017410 -0.129753
-0.266952 -0.403531 -0.091165
-0.260982 -0.342016 -0.050223
-0.457076 -0.009944 -0.091198
-0.293866 -0.219042 -0.000785
-0.457010 -0.070539 -0.004030
-0.360864 -0.062037 -0.050223
-0.288726 -0.070642 -0.129753
-0.222693 -0.172287 -0.129755
-0.213754 -0.164313 -0.204483
-0.296730 -0.188696 -0.001463
-0.241786 -0.283491 -0.050223
-0.281767 -0.404135 -0.056106
-0.241384 -0.126755 -0.129755
-0.306515 -0.365063 -0.001295
-0.192948 -0.276329 -0.204483
-0.263623 -0.090850 -0.129753
-0.406706 -0.075685 -0.001557
-0.288558 -0.049072 -0.204483
-0.217732 -0.383112 -0.204483
-0.241818 -0.319690 -0.050223
-0.375548 -0.085570 -0.002704
-0.293370 -0.104619 -0.050223
-0.248972 -0.176041 -0.050223
-0.329642 -0.066348 -0.050223
-0.312792 -0.034690 -0.129755
-0.499890 0.026671 -0.166330
-0.228442 -0.398822 -0.129755
-0.342187 -0.002930 -0.204483
-0.215957 -0.130983 -0.204483
-0.236903 -0.394444 -0.098517
-0.193853 -0.272258 -0.129755
-0.402000 -0.024155 -0.050223
-0.272538 -0.319708 -0.000559
-0.262895 -0.251296 -0.001604
-0.228816 -0.219712 -0.050223
-0.183464 -0.224306 -0.204483
-0.254780 -0.143859 -0.050223
-0.194769 -0.315356 -0.129753
-0.465218 -0.030916 -0.018926
-0.184575 -0.320389 -0.204483
-0.311014 -0.122861 -0.001079
-0.260668 -0.285235 -0.001096
-0.422276 0.021651 -0.129755
-0.342019 -0.090896 -0.001009
-0.236785 -0.445259 -0.186654
-0.367169 -0.028665 -0.050223
-0.245046 -0.441574 -0.129753
0.240999 -0.388776 -0.002131
0.263290 -0.340332 -0.001069
0.202690 -0.343873 -0.000715
0.223563 -0.309694 -0.000495
0.220699 -0.359233 -0.050223
0.289922 -0.397798 -0.004516
0.214959 -0.406272 -0.035078
0.261160 -0.406470 -0.036868
0.264177 -0.329023 -0.050223
0.278256 -0.367479 -0.050223
0.162093 -0.347979 -0.000929
0.205076 -0.319443 -0.050223
0.242151 -0.281015 -0.000497
0.162784 -0.387673 -0.002003
0.177390 -0.406110 -0.022613
0.318497 -0.353383 -0.000694
0.195047 -0.287705 -0.001558
0.301940 -0.306766 -0.000778
0.255973 -0.297247 -0.050223
0.222802 -0.293978 -0.050223
0.324076 -0.390768 -0.002456
0.246484 -0.406407 -0.071618
0.298306 -0.406630 -0.044558
0.309196 -0.374653 -0.050223
0.150194 -0.309439 -0.000483
0.173147 -0.405424 -0.053467
0.166821 -0.316766 -0.050223
0.213025 -0.405595 -0.077037
0.152159 -0.350163 -0.050223
0.312870 -0.319988 -0.050223
0.202692 -0.257053 -0.001975
0.325216 -0.284313 -0.002230
0.302830 -0.278427 -0.050223
0.341038 -0.356666 -0.050223
0.183358 -0.396018 -0.092193
0.114907 -0.374962 -0.001295
0.133801 -0.390702 -0.050223
0.226036 -0.235868 -0.000656
0.357006 -0.386590 -0.001724
0.319864 -0.406055 -0.070600
0.239449 -0.405709 -0.110475
0.224756 -0.243940 -0.050223
0.362148 -0.322277 -0.000672
0.332551 -0.292565 -0.050223
0.177515 -0.256182 -0.050223
0.353247 -0.406866 -0.031822
0.290967 -0.396961 -0.105200
0.318043 -0.253540 -0.002177
0.175124 -0.239615 -0.001443
0.123919 -0.313389 -0.050223
0.115083 -0.349979 -0.050223
0.256629 -0.361442 -0.129755
0.221939 -0.343838 -0.129755
0.288654 -0.240709 -0.050223
0.361988 -0.326059 -0.050223
0.208991 -0.384358 -0.129755
0.256691 -0.228624 -0.050223
0.273103 -0.329093 -0.129755
0.228298 -0.312264 -0.129755
0.137267 -0.266777 -0.050223
0.265279 -0.401469 -0.129755
0.343521 -0.396616 -0.089715
0.269410 -0.211278 -0.001005
0.301817 -0.363189 -0.129753
0.390946 -0.373309 -0.002675
0.099084 -0.405773 -0.048028
0.173796 -0.405427 -0.126509
0.164131 -0.352042 -0.129755
0.175573 -0.318457 -0.129755
0.133360 -0.405921 -0.099943
0.267833 -0.290811 -0.129755
0.184072 -0.209454 -0.001054
0.235090 -0.282116 -0.129753
0.219693 -0.200145 -0.000798
0.369538 -0.404835 -0.066883
0.253804 -0.437897 -0.129753
0.204438 -0.282446 -0.129753
0.392853 -0.315393 -0.001946
0.132145 -0.231516 -0.000659
0.359241 -0.266554 -0.050223
0.218768 -0.206014 -0.050223
0.200934 -0.440720 -0.129753
0.309663 -0.305783 -0.129755
0.078507 -0.303768 -0.000529
0.325664 -0.406080 -0.123951
0.088241 -0.306721 -0.050223
0.077283 -0.405680 -0.021882
0.333672 -0.221115 -0.001209
0.381430 -0.271722 -0.001166
0.066692 -0.374183 -0.001161
0.299832 -0.212271 -0.050223
0.391635 -0.379045 -0.060737
0.075264 -0.369919 -0.050223
0.394793 -0.317855 -0.050223
0.365948 -0.242120 -0.000867
0.166670 -0.209632 -0.050223
0.407841 -0.346478 -0.026080
0.098592 -0.247605 -0.000524
0.233852 -0.248955 -0.129755
0.263411 -0.251605 -0.129753
0.345158 -0.332786 -0.129753
0.348971 -0.368882 -0.129755
0.160593 -0.443391 -0.129753
0.308207 -0.194202 -0.000616
0.296655 -0.262329 -0.129755
0.156842 -0.275978 -0.129755
0.121598 -0.349237 -0.129755
0.056637 -0.339418 -0.000574
0.407430 -0.350950 -0.056201
0.082849 -0.405035 -0.081723
0.271646 -0.177212 -0.002494
0.377299 -0.400210 -0.105744
0.330997 -0.275768 -0.129753
0.118228 -0.404342 -0.129635
0.356262 -0.399595 -0.129755
0.060803 -0.402892 -0.050223
0.154352 -0.183953 -0.001047
0.243455 -0.164028 -0.001874
0.294938 -0.231718 -0.129755
0.258111 -0.171736 -0.050223
0.110753 -0.294975 -0.129755
0.096973 -0.383272 -0.129755
0.407815 -0.352693 -0.091910
0.074888 -0.256758 -0.050223
0.407871 -0.287034 -0.067454
0.044611 -0.373176 -0.050223
0.267194 -0.216718 -0.129753
0.372402 -0.306258 -0.129755
0.351765 -0.192453 -0.000698
0.263798 -0.447412 -0.170806
0.437742 -0.390435 0.008967
0.400567 -0.377542 -0.109314
0.217174 -0.210813 -0.129753
0.172278 -0.223067 -0.129755
0.195357 -0.447118 -0.172308
0.127204 -0.252741 -0.129753
0.408229 -0.256333 -0.042449
0.384394 -0.227486 -0.050223
0.398497 -0.229980 -0.003433
0.389551 -0.341160 -0.129755
0.408022 -0.304454 -0.094515
0.331249 -0.183711 -0.050223
0.087323 -0.213679 -0.001006
0.037233 -0.339654 -0.050223
0.044306 -0.301917 -0.050223
0.293285 -0.154414 -0.000887
0.357332 -0.253283 -0.129755
0.440266 -0.404828 0.051149
0.060078 -0.239126 -0.001041
0.189976 -0.158148 -0.050223
0.440418 -0.369588 0.077948
0.222060 -0.343875 -0.204483
0.182185 -0.149759 -0.000870
0.248788 -0.329128 -0.204483
0.070062 -0.359381 -0.129753
0.448584 -0.358612 -0.039468
0.454375 -0.355572 0.010313
0.337441 -0.166153 -0.000472
0.274081 -0.377170 -0.204483
0.440192 -0.421999 -0.039525
0.337512 -0.447729 -0.163177
0.400015 -0.244190 -0.080476
0.241434 -0.189734 -0.129753
0.314615 -0.208619 -0.129753
0.260020 -0.405009 -0.204483
0.042216 -0.404861 -0.086989
0.454429 -0.343082 0.048484
0.019638 -0.401937 -0.010705
0.183106 -0.194119 -0.129753
0.289722 -0.331713 -0.204483
0.226805 -0.144652 -0.050223
0.440201 -0.419908 0.077777
0.203351 -0.411812 -0.204483
0.201897 -0.306554 -0.204483
0.440356 -0.383925 -0.078399
0.085139 -0.205144 -0.050223
0.057080 -0.404925 -0.116737
0.408004 -0.267179 -0.101959
0.392873 -0.276087 -0.129753
0.458218 -0.330266 -0.022597
0.147627 -0.151325 -0.001020
0.238973 -0.287298 -0.204483
0.024205 -0.404783 -0.053559
0.175252 -0.398172 -0.204483
0.458294 -0.312407 0.011411
0.104408 -0.174070 -0.002714
0.076477 -0.274928 -0.129755
0.307466 -0.400924 -0.204483
0.276911 -0.180390 -0.129755
0.103756 -0.232706 -0.129753
0.059511 -0.309599 -0.129753
0.304482 -0.146688 -0.050223
0.222601 -0.443700 -0.204483
0.300685 -0.297048 -0.204483
0.151814 -0.329855 -0.204483
0.057967 -0.221236 -0.050223
0.407293 -0.437288 -0.129753
0.196780 -0.272797 -0.204483
0.454630 -0.296197 0.069980
0.004454 -0.322994 -0.000763
0.274536 -0.266455 -0.204483
0.322865 -0.138818 -0.001031
0.434325 -0.361017 0.140175
0.065008 -0.445270 -0.129753
0.176294 -0.441968 -0.204483
0.132174 -0.196804 -0.129753
0.130525 -0.154275 -0.050223
0.458463 -0.273213 0.021681
0.037289 -0.242500 -0.050223
0.332998 -0.317769 -0.204483
0.395671 -0.180864 -0.002461
0.449946 -0.426327 -0.074964
0.012001 -0.276164 -0.001137
0.441054 -0.420280 0.118924
0.454486 -0.329811 0.109424
0.408191 -0.212630 -0.075807
0.238857 -0.117453 -0.000577
0.251588 -0.247068 -0.204483
0.123237 -0.360451 -0.204483
0.468779 -0.296383 -0.023435
-0.006373 -0.355104 -0.001295
0.314940 -0.447632 -0.202400
0.260955 -0.123877 -0.050223
0.030897 -0.227548 -0.001056
0.468564 -0.346546 0.085825
0.351357 -0.384409 -0.204483
0.408064 -0.242230 -0.120366
0.465124 -0.358683 -0.079334
0.478600 -0.358741 -0.032141
0.144442 -0.279853 -0.204483
0.473516 -0.426428 0.001370
0.399885 -0.187874 -0.062130
0.324204 -0.174263 -0.129755
0.350760 -0.447786 -0.191201
0.385266 -0.217904 -0.129755
0.357893 -0.193704 -0.129755
0.481292 -0.361709 0.054684
0.012887 -0.404735 -0.090424
0.481149 -0.395032 -0.024124
0.118660 -0.410415 -0.204483
0.163484 -0.119770 -0.001090
0.057224 -0.184099 -0.000637
0.336284 -0.274227 -0.204483
0.026652 -0.358642 -0.129755
0.007653 -0.271925 -0.050223
0.370459 -0.145477 -0.000704
0.468670 -0.321706 -0.083014
0.192481 -0.152442 -0.129753
0.454849 -0.245289 0.069485
0.440278 -0.402067 -0.134796
0.382429 -0.447923 -0.177581
0.458619 -0.237034 -0.010361
-0.009929 -0.378335 -0.050223
0.481018 -0.425470 0.033605
0.293908 -0.111164 -0.000891
0.232272 -0.145330 -0.129753
-0.012235 -0.011416 -0.204483
-0.060541 0.036208 -0.204483
0.015916 0.026891 -0.204483
0.003057 0.057903 -0.204483
-0.062755 -0.033188 -0.204483
0.028278 -0.008607 -0.204483
-0.039994 -0.052021 -0.204483
-0.090932 0.007318 -0.204483
0.046329 0.015925 -0.204483
0.035034 0.050361 -0.204483
-0.007466 -0.064073 -0.204483
-0.081687 0.076217 -0.204483
-0.025461 0.005564 -0.129755
-0.045738 0.098029 -0.204483
0.002144 0.096546 -0.204483
-0.022768 0.041001 -0.129755
-0.059238 0.000172 -0.129755
-0.106498 0.059688 -0.204483
-0.017296 -0.027044 -0.129755
-0.059572 0.038333 -0.129753
0.027468 -0.072062 -0.204483
-0.096413 -0.058334 -0.204483
0.051785 -0.050111 -0.204483
0.020403 -0.015055 -0.129755
0.075636 -0.006031 -0.204483
-0.053366 -0.038850 -0.129755
-0.059289 -0.088871 -0.204483
0.076661 0.040505 -0.204483
-0.128592 -0.022347 -0.204483
0.034641 0.036552 -0.129755
-0.091581 0.024194 -0.129753
-0.020165 -0.057030 -0.129755
0.048217 0.092337 -0.204483
0.011977 0.073313 -0.129755
0.047506 -0.002251 -0.129755
-0.098194 -0.017382 -0.129753
-0.056958 0.082176 -0.129753
-0.145720 0.020174 -0.204483
-0.090961 0.114625 -0.204483
-0.071604 -0.067963 -0.129755
0.023221 -0.107168 -0.204483
-0.016845 0.103935 -0.129755
-0.099868 0.072671 -0.129755
0.041003 0.122326 -0.204483
0.071174 0.020072 -0.129755
-0.003440 0.139105 -0.204483
0.061497 -0.033981 -0.129755
-0.127259 0.094931 -0.204483
0.002229 -0.085108 -0.129753
0.039396 -0.065533 -0.129755
-0.047940 0.142259 -0.204483
0.083923 0.092639 -0.204483
0.054066 0.080463 -0.129755
-0.019548 -0.130699 -0.204483
0.024300 0.108885 -0.129753
0.115480 0.020246 -0.204483
0.109321 0.058065 -0.204483
0.108607 -0.042147 -0.204483
0.063936 -0.104392 -0.204483
-0.106574 -0.075460 -0.129755
-0.143454 0.004176 -0.129755
0.089293 -0.014700 -0.129755
-0.119878 -0.102789 -0.204483
-0.016825 -0.107716 -0.129755
-0.056947 -0.105319 -0.129753
-0.172514 0.037477 -0.204483
0.088310 0.050936 -0.129755
-0.094735 0.113485 -0.129753
-0.025243 0.163771 -0.204483
-0.049010 0.134535 -0.129755
0.004393 0.134504 -0.129753
-0.160145 0.087663 -0.204483
0.072768 -0.073011 -0.129755
-0.151208 0.041691 -0.129753
-0.152341 -0.081186 -0.204483
-0.181082 -0.008897 -0.204483
-0.127334 0.134088 -0.204483
-0.151232 -0.041520 -0.129753
0.006631 -0.147756 -0.204483
-0.082701 -0.141659 -0.204483
0.111579 0.015647 -0.129753
0.100908 -0.046302 -0.129755
0.047567 0.128325 -0.129755
0.034000 -0.115875 -0.129755
-0.081773 0.166613 -0.204483
-0.143750 0.090782 -0.129753
0.100370 0.080146 -0.129755
-0.016534 -0.010855 -0.050223
0.070633 0.148794 -0.204483
-0.024000 0.039160 -0.050223
0.142610 0.042594 -0.204483
0.130129 0.085117 -0.204483
-0.138594 -0.091179 -0.129755
-0.079370 -0.003397 -0.050223
0.005971 0.055181 -0.050223
-0.041007 -0.045472 -0.050223
0.024669 -0.017913 -0.050223
-0.190001 -0.057157 -0.204483
-0.074120 0.047186 -0.050223
-0.017231 -0.144989 -0.129753
0.038841 0.021311 -0.050223
-0.197612 0.067732 -0.204483
0.132688 -0.077531 -0.204483
0.062367 -0.148169 -0.204483
-0.155696 -0.117162 -0.204483
0.035078 0.050592 -0.050223
0.093424 0.117477 -0.129755
-0.086496 -0.034840 -0.050223
-0.078819 -0.143301 -0.129753
-0.012680 0.088184 -0.050223
0.002327 0.172304 -0.129753
-0.044710 -0.175322 -0.204483
0.122643 0.122919 -0.204483
0.001050 -0.068769 -0.050223
0.161013 0.002876 -0.204483
-0.191422 -0.010603 -0.129755
0.151646 -0.053630 -0.204483
0.060654 -0.003172 -0.050223
-0.091807 0.164889 -0.129753
-0.080004 0.083537 -0.050223
-0.134154 -0.121068 -0.129753
-0.045750 0.100879 -0.050223
-0.111015 0.049447 -0.050223
0.102667 -0.102662 -0.129755
-0.153816 0.124003 -0.129753
0.141079 -0.032539 -0.129753
-0.064838 -0.078658 -0.050223
0.069362 0.029926 -0.050223
-0.166902 0.144136 -0.204483
0.045142 0.083076 -0.050223
0.142532 0.060076 -0.129753
-0.128694 0.014613 -0.050223
-0.179955 -0.075010 -0.129753
0.149855 0.022219 -0.129755
-0.195619 0.112488 -0.204483
-0.095835 0.195624 -0.204483
-0.199767 0.048647 -0.129753
-0.190634 -0.100659 -0.204483
-0.189623 0.081909 -0.129755
-0.112254 -0.054183 -0.050223
0.060864 -0.054708 -0.050223
-0.132042 0.154535 -0.129755
-0.220664 -0.035659 -0.204483
-0.008793 -0.189572 -0.204483
-0.050027 0.189599 -0.129755
-0.125229 -0.165068 -0.204483
-0.011654 0.121454 -0.050223
-0.079824 -0.184236 -0.204483
-0.133097 0.181947 -0.204483
0.042023 -0.181786 -0.204483
0.082618 0.059379 -0.050223
0.135881 0.102226 -0.129755
0.035213 0.206629 -0.204483
0.088737 0.161680 -0.129755
0.037054 -0.098755 -0.050223
-0.002033 -0.114093 -0.050223
-0.168887 -0.116415 -0.129755
0.100473 0.021206 -0.050223
0.096165 -0.028639 -0.050223
0.020018 -0.177033 -0.129753
0.117885 0.166984 -0.204483
0.077079 -0.154668 -0.129755
-0.157653 0.026833 -0.050223
-0.147951 0.065038 -0.050223
0.023586 0.135564 -0.050223
-0.189634 0.119527 -0.129755
0.058700 0.116541 -0.050223
-0.044163 -0.125160 -0.050223
0.153323 -0.072674 -0.129755
-0.033283 -0.187485 -0.129755
-0.038250 0.023328 -0.001558
-0.073981 0.142512 -0.050223
0.134817 -0.109856 -0.129753
-0.021650 -0.027202 -0.001565
0.096758 -0.171953 -0.204483
-0.220118 -0.044043 -0.129753
-0.165747 -0.017428 -0.050223
-0.141473 -0.155634 -0.129755
-0.094298 -0.180481 -0.129755
0.166930 0.119856 -0.204483
-0.013757 0.055912 -0.000763
0.175897 -0.025191 -0.129755
-0.055022 0.053440 -0.000500
0.171131 -0.096253 -0.204483
-0.249442 0.027047 -0.204483
0.019603 -0.024134 -0.000555
-0.240694 0.076415 -0.204483
0.038242 0.207451 -0.129755
0.196383 0.045483 -0.204483
0.133519 0.144649 -0.129755
-0.023924 0.236349 -0.204483
-0.088788 0.027958 -0.000729
-0.235082 0.004721 -0.129753
-0.124447 0.195769 -0.129755
0.201445 -0.009632 -0.204483
-0.254245 -0.006831 -0.204483
0.196665 -0.043494 -0.204483
0.130717 0.002989 -0.050223
-0.180628 -0.159432 -0.204483
0.043010 0.047757 -0.001382
-0.097837 -0.023131 -0.000884
0.117893 -0.059557 -0.050223
-0.146599 0.114997 -0.050223
0.128258 0.052347 -0.050223
0.068808 -0.119432 -0.050223
-0.130330 -0.112246 -0.050223
-0.093092 0.232490 -0.204483
-0.056809 0.088618 -0.001139
0.114814 -0.153255 -0.129753
-0.090297 0.069542 -0.001835
-0.106898 -0.130506 -0.050223
-0.021970 0.172581 -0.050223
-0.248867 -0.059770 -0.204483
-0.065661 -0.069736 -0.001089
-0.171619 0.172630 -0.129755
0.065884 0.226568 -0.204483
0.133509 -0.163441 -0.204483
0.063965 -0.013508 -0.000675
-0.057795 0.173589 -0.050223
0.191995 0.038921 -0.129755
-0.215957 -0.130983 -0.204483
0.168131 0.114459 -0.129755
-0.190617 0.043910 -0.050223
-0.070226 -0.222905 -0.204483
-0.236998 0.074489 -0.129755
-0.031719 0.106228 -0.000695
0.160218 0.157795 -0.204483
0.068207 0.150254 -0.050223
-0.198150 -0.129361 -0.129755
0.047575 0.084021 -0.002952
0.123778 0.092690 -0.050223
-0.124436 0.030023 -0.000506
0.062140 -0.194504 -0.129755
0.113804 -0.089221 -0.050223
-0.103123 -0.060157 -0.001856
-0.168919 -0.085136 -0.050223
0.007726 -0.089164 -0.001275
0.214260 0.021835 -0.204483
-0.045029 0.233472 -0.129753
-0.217421 0.156438 -0.204483
0.049894 -0.066332 -0.001898
-0.179387 0.091395 -0.050223
0.162546 -0.140862 -0.204483
-0.078675 -0.209820 -0.129753
0.046305 -0.222168 -0.204483
-0.207416 0.147458 -0.129755
-0.124548 0.065844 -0.000941
-0.232190 0.108549 -0.129753
-0.193766 -0.050906 -0.050223
-0.205129 0.013503 -0.050223
-0.130554 -0.193705 -0.129755
0.011972 -0.233133 -0.204483
-0.144330 0.006491 -0.001508
-0.242573 -0.069529 -0.129755
0.109608 0.216302 -0.204483
0.212679 0.076047 -0.204483
0.468708 0.426476 -0.056082
0.443763 0.408156 -0.032755
0.477515 0.426438 -0.017488
0.443834 0.424615 -0.078373
0.443638 0.379020 -0.060807
0.470013 0.395041 -0.090858
0.484470 0.377115 -0.022354
0.448978 0.426561 -0.109224
0.477730 0.426437 0.020179
0.400833 0.385518 -0.067689
0.484502 0.384491 0.008432
0.442855 0.399328 0.029634
0.409350 0.365272 -0.047028
0.457422 0.352870 -0.038919
0.484582 0.403085 -0.115696
0.405892 0.366690 -0.005681
0.367423 0.399344 -0.050223
0.457393 0.346239 -0.074990
0.441040 0.391134 -0.125432
0.489560 0.437632 -0.129753
0.455288 0.426534 0.054876
0.409293 0.363983 -0.100102
0.410794 0.340008 -0.023237
0.457362 0.338946 0.004801
0.450422 0.436588 -0.148527
0.467306 0.358774 -0.122072
0.385566 0.406551 -0.129753
0.397451 0.332476 -0.050223
0.357003 0.395465 -0.093175
0.461007 0.318308 -0.036484
0.339993 0.405290 -0.022859
0.387358 0.444612 -0.139681
0.484561 0.398315 0.066947
0.357333 0.358386 -0.050223
0.501763 0.408738 -0.149674
0.482171 0.358710 0.049537
0.363659 0.355411 -0.001214
0.445517 0.426576 0.083985
0.471383 0.308938 -0.071244
0.499107 0.350155 -0.129753
0.450061 0.352633 -0.147404
0.443585 0.366779 0.072781
0.399202 0.317094 -0.002866
0.397626 0.347909 -0.129755
0.351277 0.409754 -0.127078
0.325475 0.384973 -0.050223
0.410622 0.300015 -0.042422
0.501595 0.369732 -0.156190
0.450902 0.322736 -0.129753
0.402872 0.312896 -0.103156
0.471386 0.309717 -0.112931
0.351944 0.375211 -0.129755
0.329233 0.366147 -0.000924
0.458303 0.331310 0.064527
0.344428 0.444797 -0.141247
0.357442 0.323906 -0.000562
0.460854 0.282737 -0.040186
0.501884 0.437041 -0.183128
0.450223 0.390426 -0.186642
0.318112 0.409897 -0.114515
0.301605 0.405455 -0.020764
0.442155 0.398124 0.109272
0.300510 0.405460 -0.067915
0.460878 0.288358 0.019533
0.484576 0.401796 0.108573
0.369248 0.297390 -0.050223
0.383581 0.318717 -0.129755
0.406814 0.283203 -0.009998
0.442996 0.440336 -0.204483
0.472222 0.419121 -0.204483
0.460582 0.359668 0.105439
0.344686 0.338000 -0.129755
0.409557 0.443605 -0.204483
0.410501 0.271848 -0.074620
0.415043 0.291929 -0.129753
0.405631 0.412858 -0.204483
0.460915 0.296943 0.061556
0.501315 0.304599 -0.144232
0.460778 0.265077 -0.004833
0.308653 0.337932 -0.050223
0.311965 0.341444 -0.000729
0.501494 0.346366 -0.183117
0.290166 0.405504 -0.096358
0.354656 0.444753 -0.184304
0.489179 0.382613 -0.204483
0.471484 0.332436 0.099190
0.426660 0.373004 -0.204483
0.376201 0.444119 -0.204483
0.313162 0.356821 -0.129753
0.272551 0.409230 -0.050310
0.338033 0.296374 -0.001273
0.333773 0.290600 -0.050223
0.390834 0.367136 -0.204483
0.474930 0.434439 0.142022
0.426792 0.342228 -0.204483
0.484438 0.369658 0.133111
0.268168 0.401982 -0.010637
0.469605 0.264191 -0.129860
0.410157 0.244429 -0.058155
0.501338 0.310033 -0.183241
0.456951 0.243486 -0.083287
0.268842 0.370028 -0.050223
0.401522 0.249106 -0.003817
0.460708 0.248871 0.026216
0.449864 0.306851 -0.193636
0.449714 0.271877 -0.156221
0.275403 0.410081 -0.126322
0.441197 0.393818 0.152205
0.355467 0.369236 -0.204483
0.471178 0.261304 0.059392
0.280741 0.375334 -0.129755
0.501168 0.270559 -0.150741
0.382767 0.264252 -0.129753
0.258655 0.410153 -0.098544
0.342373 0.261817 -0.050223
0.321900 0.303156 -0.129755
0.410356 0.238287 -0.095638
0.460302 0.355742 0.149721
0.410170 0.247442 -0.125101
0.306236 0.290245 -0.000977
0.370407 0.331846 -0.204483
0.335544 0.262938 -0.002952
0.315686 0.421775 -0.204483
0.240320 0.406813 -0.050223
0.470834 0.268191 0.093408
0.471001 0.220118 -0.060905
0.342598 0.269969 -0.129755
0.471006 0.221459 -0.006645
0.254808 0.435406 -0.129753
0.398606 0.299249 -0.204483
0.259008 0.340202 -0.001082
0.376664 0.226631 -0.050223
0.493563 0.234471 -0.129753
0.501220 0.282520 -0.202767
0.227468 0.405774 -0.014379
0.471340 0.298968 0.143236
0.294746 0.389274 -0.204483
0.419612 0.270618 -0.204483
0.401710 0.207590 -0.068244
0.274067 0.312474 -0.129755
0.279873 0.276494 -0.050223
0.318048 0.333314 -0.204483
0.449502 0.222670 -0.144232
0.301685 0.257961 -0.001328
0.369551 0.216627 -0.000580
0.471005 0.221061 0.067920
0.250449 0.338094 -0.129755
0.465946 0.253905 -0.204483
0.501073 0.248327 -0.191485
0.245982 0.302985 -0.050223
0.369355 0.220130 -0.129755
0.281183 0.280170 -0.129755
0.213792 0.410346 -0.095093
0.257598 0.445170 -0.192212
0.470886 0.193353 -0.098253
0.281496 0.359775 -0.204483
0.229146 0.373317 -0.129755
0.293791 0.241466 -0.050223
0.314505 0.229285 -0.001059
0.404386 0.190570 -0.004806
0.358304 0.266714 -0.204483
0.460415 0.180647 -0.043410
0.253875 0.282509 -0.000466
0.484492 0.198171 -0.129753
0.202002 0.388326 -0.050223
0.259544 0.395081 -0.204483
0.213575 0.340555 -0.050223
0.308883 0.239142 -0.129755
0.470825 0.179191 -0.001158
0.315951 0.286580 -0.204483
0.409937 0.193297 -0.128658
0.346687 0.195225 -0.050223
0.458025 0.214438 0.101313
0.198474 0.384858 -0.001632
0.305984 0.214715 -0.050223
0.471138 0.252131 0.149136
0.449469 0.214970 -0.192517
0.192488 0.395988 -0.079457
0.187838 0.405944 -0.026801
0.419590 0.224072 -0.204483
0.207231 0.445387 -0.147217
0.325866 0.200558 -0.000831
0.277511 0.250192 -0.129755
0.356370 0.183299 -0.000908
0.197101 0.412553 -0.129753
0.203830 0.331832 -0.000479
0.236028 0.294056 -0.129755
0.470807 0.175054 0.043164
0.453438 0.175198 -0.129753
0.409805 0.162616 -0.052117
0.215458 0.325347 -0.129753
0.236852 0.261102 -0.050223
0.323660 0.204822 -0.129755
0.409824 0.166977 -0.104587
0.245819 0.253286 -0.000587
0.500775 0.179174 -0.149633
0.374893 0.217599 -0.204483
0.207387 0.287428 -0.050223
0.257346 0.225380 -0.001140
0.277943 0.220600 -0.129755
0.182604 0.376041 -0.129755
0.500856 0.198051 -0.204342
0.373016 0.154029 -0.050223
0.253016 0.298417 -0.204483
0.202226 0.290099 -0.001131
0.214462 0.393016 -0.204483
0.460244 0.140942 -0.030296
0.161412 0.406058 -0.055123
0.299630 0.242944 -0.204483
0.273249 0.267410 -0.204483
0.164759 0.376370 -0.050223
0.470662 0.141306 -0.075905
0.495909 0.155077 -0.129753
0.175215 0.331730 -0.050223
0.282837 0.190437 -0.050223
0.350311 0.167167 -0.129755
0.368486 0.148750 -0.000799
0.155566 0.406083 -0.018117
0.460241 0.140292 0.020363
0.449285 0.172297 -0.190278
0.165557 0.412698 -0.129753
0.434927 0.145497 -0.129753
0.212872 0.349390 -0.204483
0.470742 0.159916 0.086754
0.246516 0.208037 -0.050223
0.176867 0.334849 -0.129753
0.154134 0.406061 -0.100968
0.462157 0.217346 0.174133
0.233106 0.238482 -0.129753
0.204321 0.256761 -0.002015
0.284267 0.178676 -0.001708
0.196458 0.287154 -0.129755
0.401859 0.133305 -0.091339
0.398939 0.130836 -0.003038
0.323172 0.203016 -0.204483
0.405030 0.173042 -0.204483
0.402420 0.139554 -0.129753
0.217584 0.229649 -0.050223
0.180015 0.445504 -0.191121
0.160810 0.332039 -0.000726
0.500673 0.155512 -0.175183
0.296302 0.162034 -0.050223
0.478139 0.165548 -0.204483
0.345117 0.137582 -0.050223
0.409847 0.119802 -0.049411
0.365034 0.173172 -0.204483
0.138182 0.387000 -0.001876
0.144567 0.445656 -0.130395
0.184209 0.363098 -0.204483
0.201557 0.314559 -0.204483
0.456394 0.113919 -0.088835
0.170298 0.300829 -0.129753
0.449120 0.133788 -0.165477
0.172949 0.418487 -0.204483
0.151820 0.350224 -0.129753
0.242548 0.201983 -0.129755
0.452799 0.100588 0.198368
0.469052 0.081275 0.173549
0.470281 0.052767 0.192193
0.461439 0.085222 0.135704
0.452480 0.026281 0.201940
0.465648 0.128162 0.137467
0.456103 0.164482 0.187563
0.456015 0.025690 0.146068
0.470069 0.003413 0.181453
0.452575 -0.004162 0.155815
0.468437 0.062938 0.093408
0.455012 -0.022200 0.204483
0.462157 0.217346 0.174133
0.470742 0.159916 0.086754
0.468303 -0.026103 0.137686
0.456395 0.114112 0.069044
0.470035 -0.004386 0.102501
0.455981 0.017981 0.076395
0.460977 -0.050224 0.167151
0.458025 0.214438 0.101313
0.459986 0.080935 0.042447
0.459793 0.036058 0.051126
0.458722 -0.073746 0.201624
0.471138 0.252131 0.149136
0.459577 -0.014293 0.057792
0.470807 0.175054 0.043164
0.463189 -0.058294 0.096805
0.471005 0.221061 0.067920
0.460241 0.140292 0.020363
0.470451 0.092320 0.003301
0.470083 0.006783 0.015818
0.459390 -0.057679 0.059376
0.470834 0.268191 0.093408
0.471340 0.298968 0.143236
0.455371 -0.124017 0.180837
0.398939 0.130836 -0.003038
0.470825 0.179191 -0.001158
0.471178 0.261304 0.059392
0.391707 0.043814 -0.001529
0.469625 -0.099799 0.088602
0.366158 0.087497 -0.001287
0.409712 0.088530 -0.020633
0.368486 0.148750 -0.000799
0.459433 -0.047778 0.015064
0.460708 0.248871 0.026216
0.470151 0.022628 -0.024570
0.404386 0.190570 -0.004806
0.460244 0.140942 -0.030296
0.381678 -0.003245 -0.001251
0.341399 0.059888 -0.001233
0.409562 0.053672 -0.032836
0.471006 0.221459 -0.006645
0.409345 0.003042 -0.019925
0.456409 -0.151357 0.162364
0.356370 0.183299 -0.000908
0.460915 0.296943 0.061556
0.455330 -0.133468 0.092681
0.384422 -0.034855 -0.001185
0.325722 0.033488 -0.001011
0.459218 -0.097584 0.032063
0.312516 0.109261 -0.001089
0.369551 0.216627 -0.000580
0.409847 0.119802 -0.049411
0.459019 -0.008045 -0.038516
0.470484 0.100042 -0.058828
0.460415 0.180647 -0.043410
0.471484 0.332436 0.099190
0.470252 0.046033 -0.057122
0.401522 0.249106 -0.003817
0.293729 0.064384 -0.000847
0.460878 0.288358 0.019533
0.460302 0.355742 0.149721
0.395229 0.031531 -0.050223
0.325866 0.200558 -0.000831
0.409805 0.162616 -0.052117
0.460778 0.265077 -0.004833
0.368408 0.099244 -0.050223
0.369488 0.061300 -0.050223
0.373016 0.154029 -0.050223
0.458303 0.331310 0.064527
0.409330 -0.000474 -0.052537
0.378434 -0.074737 -0.001028
0.320358 -0.028466 -0.000773
0.409122 -0.048703 -0.030211
0.469751 -0.070469 -0.024560
0.272044 0.097890 -0.000579
0.469479 -0.133617 0.034339
0.470662 0.141306 -0.075905
0.458979 -0.153287 0.060942
0.345117 0.137582 -0.050223
0.401209 0.065876 -0.073593
0.460582 0.359668 0.105439
0.272189 0.141393 -0.000977
0.284959 0.005835 -0.001423
0.484438 0.369658 0.133111
0.284267 0.178676 -0.001708
0.349836 0.018622 -0.050223
0.314505 0.229285 -0.001059
0.267757 0.035048 -0.001107
0.367480 -0.010784 -0.050223
0.405680 -0.100859 -0.005571
0.331537 0.045075 -0.050223
0.459153 -0.112863 -0.004594
0.349099 -0.079748 -0.001680
0.406814 0.283203 -0.009998
0.456394 0.113919 -0.088835
0.471001 0.220118 -0.060905
0.389662 -0.036488 -0.050223
0.451502 -0.201051 0.178326
0.470412 0.083125 -0.092696
0.312445 0.090975 -0.050223
0.457505 -0.061892 -0.050965
0.335544 0.262938 -0.002952
0.346687 0.195225 -0.050223
0.376664 0.226631 -0.050223
0.292799 -0.044627 -0.000490
0.469969 -0.019682 -0.076722
0.401710 0.207590 -0.068244
0.401859 0.133305 -0.091339
0.443585 0.366779 0.072781
0.330096 -0.011952 -0.050223
0.409713 0.088773 -0.098380
0.410157 0.244429 -0.058155
0.441197 0.393818 0.152205
0.482171 0.358710 0.049537
0.460854 0.282737 -0.040186
0.301685 0.257961 -0.001328
0.401457 0.026941 -0.094068
0.385984 -0.070326 -0.050223
0.231177 0.082467 -0.001004
0.399202 0.317094 -0.002866
0.296302 0.162034 -0.050223
0.237144 0.030978 -0.001011
0.400899 -0.028916 -0.078388
0.264169 -0.036344 -0.001241
0.351704 -0.056430 -0.050223
0.344419 -0.114672 -0.001105
0.408936 -0.091990 -0.046573
0.246188 -0.000835 -0.002607
0.462711 -0.205150 0.096516
0.458829 -0.188137 0.057078
0.338033 0.296374 -0.001273
0.457362 0.338946 0.004801
0.470886 0.193353 -0.098253
0.460682 -0.218938 0.140166
0.299535 -0.005596 -0.050223
0.469820 -0.054459 -0.080559
0.278607 0.037807 -0.050223
0.269599 0.071711 -0.050223
0.257346 0.225380 -0.001140
0.409824 0.166977 -0.104587
0.442155 0.398124 0.109272
0.281697 -0.076112 -0.000783
0.265838 0.113433 -0.050223
0.305984 0.214715 -0.050223
0.456951 0.243486 -0.083287
0.226197 0.165914 -0.001267
0.484576 0.401796 0.108573
0.307339 -0.038264 -0.050223
0.410622 0.300015 -0.042422
0.306236 0.290245 -0.000977
0.357442 0.323906 -0.000562
0.370459 -0.145477 -0.000704
0.455971 0.015446 -0.115426
0.282837 0.190437 -0.050223
0.342373 0.261817 -0.050223
0.461007 0.318308 -0.036484
0.449351 0.110946 -0.129753
0.484961 0.071794 -0.129753
0.373180 -0.104605 -0.050223
0.410501 0.271848 -0.074620
0.293908 -0.111164 -0.000891
0.201036 0.074905 -0.001850
0.484561 0.398315 0.066947
0.203530 0.144389 -0.000683
0.410356 0.238287 -0.095638
0.459035 -0.140309 -0.041353
0.263958 -0.004019 -0.050223
0.434927 0.145497 -0.129753
0.448754 0.048860 -0.132339
0.495909 0.155077 -0.129753
0.322865 -0.138818 -0.001031
0.215424 -0.013179 -0.000888
0.409055 -0.011712 -0.116105
0.369248 0.297390 -0.050223
0.410794 0.340008 -0.023237
0.406580 0.047487 -0.129753
0.490551 0.021235 -0.129753
0.245819 0.253286 -0.000587
0.293791 0.241466 -0.050223
0.408740 -0.137424 -0.043104
0.402420 0.139554 -0.129753
0.453438 0.175198 -0.129753
0.383272 0.070879 -0.129753
0.239484 0.041457 -0.050223
0.400618 -0.095153 -0.078584
0.239163 0.155943 -0.050223
0.403858 0.015960 -0.129753
0.333773 0.290600 -0.050223
0.474930 0.434439 0.142022
0.408828 -0.064540 -0.103391
0.363659 0.355411 -0.001214
0.395671 -0.180864 -0.002461
0.360448 0.097286 -0.129755
0.484492 0.198171 -0.129753
0.471383 0.308938 -0.071244
0.454194 -0.016210 -0.129753
0.405892 0.366690 -0.005681
0.253875 0.282509 -0.000466
0.361105 0.129990 -0.129753
0.189382 0.022598 -0.000835
0.409937 0.193297 -0.128658
0.493646 -0.019758 -0.129753
0.484502 0.384491 0.008432
0.458905 -0.170510 -0.031385
0.320052 -0.104344 -0.050223
0.337441 -0.166153 -0.000472
0.442855 0.399328 0.029634
0.221159 -0.062083 -0.000879
0.348577 0.055866 -0.129755
0.246516 0.208037 -0.050223
0.458698 -0.250711 0.112336
0.457422 0.352870 -0.038919
0.397451 0.332476 -0.050223
0.445517 0.426576 0.083985
0.279922 -0.075128 -0.050223
0.215493 0.074869 -0.050223
0.311965 0.341444 -0.000729
0.500557 0.128428 -0.151880
0.357561 0.013097 -0.129755
0.230524 -0.003027 -0.050223
0.448898 0.082313 -0.156735
0.350311 0.167167 -0.129755
0.469081 -0.226177 0.032694
0.209140 0.112754 -0.050223
0.184473 -0.007990 -0.000563
0.329261 0.135902 -0.129753
0.434045 -0.048856 -0.129753
0.493563 0.234471 -0.129753
0.454849 -0.245289 0.069485
0.293285 -0.154414 -0.000887
0.484470 0.377115 -0.022354
0.469535 -0.120736 -0.092499
0.500775 0.179174 -0.149633
0.279873 0.276494 -0.050223
0.319661 0.061610 -0.129753
0.184386 0.202440 -0.000892
0.455288 0.426534 0.054876
0.362791 -0.022166 -0.129755
0.410170 0.247442 -0.125101
0.162936 0.123854 -0.001189
0.386944 -0.042517 -0.129755
0.500176 0.039935 -0.159586
0.351765 -0.192453 -0.000698
0.329233 0.366147 -0.000924
0.369355 0.220130 -0.129755
0.356370 0.183299 -0.000908
0.368486 0.148750 -0.000799
0.404386 0.190570 -0.004806
0.369551 0.216627 -0.000580
0.325866 0.200558 -0.000831
0.398939 0.130836 -0.003038
0.373016 0.154029 -0.050223
0.346687 0.195225 -0.050223
0.409805 0.162616 -0.052117
0.401522 0.249106 -0.003817
0.376664 0.226631 -0.050223
0.314505 0.229285 -0.001059
0.345117 0.137582 -0.050223
0.401710 0.207590 -0.068244
0.284267 0.178676 -0.001708
0.409847 0.119802 -0.049411
0.335544 0.262938 -0.002952
0.366158 0.087497 -0.001287
0.460241 0.140292 0.020363
0.312516 0.109261 -0.001089
0.470825 0.179191 -0.001158
0.305984 0.214715 -0.050223
0.410157 0.244429 -0.058155
0.296302 0.162034 -0.050223
0.460415 0.180647 -0.043410
0.368408 0.099244 -0.050223
0.470807 0.175054 0.043164
0.460244 0.140942 -0.030296
0.409712 0.088530 -0.020633
0.471006 0.221459 -0.006645
0.342373 0.261817 -0.050223
0.301685 0.257961 -0.001328
0.406814 0.283203 -0.009998
0.272189 0.141393 -0.000977
0.282837 0.190437 -0.050223
0.460708 0.248871 0.026216
0.401859 0.133305 -0.091339
0.293791 0.241466 -0.050223
0.471005 0.221061 0.067920
0.409824 0.166977 -0.104587
0.456395 0.114112 0.069044
0.460778 0.265077 -0.004833
0.338033 0.296374 -0.001273
0.312445 0.090975 -0.050223
0.470742 0.159916 0.086754
0.341399 0.059888 -0.001233
0.410356 0.238287 -0.095638
0.471001 0.220118 -0.060905
0.257346 0.225380 -0.001140
0.458025 0.214438 0.101313
0.410501 0.271848 -0.074620
0.306236 0.290245 -0.000977
0.470451 0.092320 0.003301
0.369248 0.297390 -0.050223
0.333773 0.290600 -0.050223
0.272044 0.097890 -0.000579
0.369488 0.061300 -0.050223
0.470662 0.141306 -0.075905
0.459986 0.080935 0.042447
0.471178 0.261304 0.059392
0.410622 0.300015 -0.042422
0.391707 0.043814 -0.001529
0.409562 0.053672 -0.032836
0.460878 0.288358 0.019533
0.456951 0.243486 -0.083287
0.399202 0.317094 -0.002866
0.265838 0.113433 -0.050223
0.293729 0.064384 -0.000847
0.350311 0.167167 -0.129755
0.470484 0.100042 -0.058828
0.460854 0.282737 -0.040186
0.409937 0.193297 -0.128658
0.401209 0.065876 -0.073593
0.246516 0.208037 -0.050223
0.456394 0.113919 -0.088835
0.357442 0.323906 -0.000562
0.470886 0.193353 -0.098253
0.369355 0.220130 -0.129755
0.409713 0.088773 -0.098380
0.279873 0.276494 -0.050223
0.402420 0.139554 -0.129753
0.245819 0.253286 -0.000587
0.361105 0.129990 -0.129753
0.226197 0.165914 -0.001267
0.239163 0.155943 -0.050223
0.323660 0.204822 -0.129755
0.329261 0.135902 -0.129753
0.460915 0.296943 0.061556
0.331537 0.045075 -0.050223
0.470834 0.268191 0.093408
0.410170 0.247442 -0.125101
0.325722 0.033488 -0.001011
0.434927 0.145497 -0.129753
0.253875 0.282509 -0.000466
0.453438 0.175198 -0.129753
0.395229 0.031531 -0.050223
0.269599 0.071711 -0.050223
0.382767 0.264252 -0.129753
0.360448 0.097286 -0.129755
0.465648 0.128162 0.137467
0.288639 0.162584 -0.129753
0.397451 0.332476 -0.050223
0.308883 0.239142 -0.129755
0.410794 0.340008 -0.023237
0.342598 0.269969 -0.129755
0.461007 0.318308 -0.036484
0.470412 0.083125 -0.092696
0.236852 0.261102 -0.050223
0.468437 0.062938 0.093408
0.459793 0.036058 0.051126
0.449351 0.110946 -0.129753
0.311965 0.341444 -0.000729
0.231177 0.082467 -0.001004
0.349836 0.018622 -0.050223
0.277943 0.220600 -0.129755
0.280490 0.133687 -0.129755
0.203530 0.144389 -0.000683
0.217584 0.229649 -0.050223
0.363659 0.355411 -0.001214
0.402872 0.312896 -0.103156
0.449502 0.222670 -0.144232
0.383272 0.070879 -0.129753
0.470252 0.046033 -0.057122
0.484492 0.198171 -0.129753
0.457362 0.338946 0.004801
0.461439 0.085222 0.135704
0.471383 0.308938 -0.071244
0.267757 0.035048 -0.001107
0.458303 0.331310 0.064527
0.299790 0.093123 -0.129755
0.308653 0.337932 -0.050223
0.278607 0.037807 -0.050223
0.409345 0.003042 -0.019925
0.415043 0.291929 -0.129753
0.471138 0.252131 0.149136
0.277511 0.250192 -0.129755
0.381678 -0.003245 -0.001251
0.495909 0.155077 -0.129753
0.204321 0.256761 -0.002015
0.401457 0.026941 -0.094068
0.470151 0.022628 -0.024570
0.245982 0.302985 -0.050223
0.469605 0.264191 -0.129860
0.357333 0.358386 -0.050223
0.209140 0.112754 -0.050223
0.348577 0.055866 -0.129755
0.405892 0.366690 -0.005681
0.462157 0.217346 0.174133
0.250694 0.143599 -0.129755
0.493563 0.234471 -0.129753
0.319661 0.061610 -0.129753
0.329233 0.366147 -0.000924
0.184386 0.202440 -0.000892
0.455981 0.017981 0.076395
0.321900 0.303156 -0.129755
0.242548 0.201983 -0.129755
0.409330 -0.000474 -0.052537
0.406580 0.047487 -0.129753
0.281183 0.280170 -0.129755
0.456103 0.164482 0.187563
0.449120 0.133788 -0.165477
0.409350 0.365272 -0.047028
0.284959 0.005835 -0.001423
0.383581 0.318717 -0.129755
0.457422 0.352870 -0.038919
0.259008 0.340202 -0.001082
0.470083 0.006783 0.015818
0.252048 0.110335 -0.129755
0.215493 0.074869 -0.050223
0.367480 -0.010784 -0.050223
0.471484 0.332436 0.099190
0.471340 0.298968 0.143236
0.270437 0.076863 -0.129755
0.471386 0.309717 -0.112931
0.239484 0.041457 -0.050223
0.500775 0.179174 -0.149633
0.237144 0.030978 -0.001011
0.201036 0.074905 -0.001850
0.457393 0.346239 -0.074990
0.449714 0.271877 -0.156221
0.202226 0.290099 -0.001131
0.179456 0.195132 -0.050223
0.330096 -0.011952 -0.050223
0.448898 0.082313 -0.156735
0.233106 0.238482 -0.129753
0.448754 0.048860 -0.132339
0.207387 0.287428 -0.050223
0.443585 0.366779 0.072781
0.484961 0.071794 -0.129753
0.219526 0.172233 -0.129755
0.299535 -0.005596 -0.050223
0.175182 0.150664 -0.050223
0.500557 0.128428 -0.151880
0.482171 0.358710 0.049537
0.459019 -0.008045 -0.038516
0.344686 0.338000 -0.129755
0.469052 0.081275 0.173549
0.450902 0.322736 -0.129753
0.449285 0.172297 -0.190278
0.365034 0.173172 -0.204483
0.384422 -0.034855 -0.001185
0.320358 -0.028466 -0.000773
0.405030 0.173042 -0.204483
0.409293 0.363983 -0.100102
0.274067 0.312474 -0.129755
0.210082 0.203028 -0.129755
0.174644 0.240251 -0.050223
0.459577 -0.014293 0.057792
0.374893 0.217599 -0.204483
0.403858 0.015960 -0.129753
0.449469 0.214970 -0.192517
0.357561 0.013097 -0.129755
0.325475 0.384973 -0.050223
0.452799 0.100588 0.198368
0.397626 0.347909 -0.129755
0.162936 0.123854 -0.001189
0.460582 0.359668 0.105439
0.400833 0.385518 -0.067689
0.456015 0.025690 0.146068
0.323172 0.203016 -0.204483
0.443638 0.379020 -0.060807
0.455971 0.015446 -0.115426
0.246188 -0.000835 -0.002607
0.340035 0.132062 -0.204483
0.316086 0.170247 -0.204483
0.263958 -0.004019 -0.050223
0.419590 0.224072 -0.204483
0.501168 0.270559 -0.150741
0.388768 0.118786 -0.204483
0.288083 0.028349 -0.129753
0.500673 0.155512 -0.175183
0.268842 0.370028 -0.050223
0.389662 -0.036488 -0.050223
0.156434 0.236553 -0.001087
0.204992 0.128896 -0.129755
0.322997 0.009566 -0.129753
0.367423 0.399344 -0.050223
0.236028 0.294056 -0.129755
0.470035 -0.004386 0.102501
0.484470 0.377115 -0.022354
0.203830 0.331832 -0.000479
0.400899 -0.028916 -0.078388
0.339993 0.405290 -0.022859
0.145160 0.185490 -0.001169
0.442855 0.399328 0.029634
0.225677 0.073906 -0.129755
0.484502 0.384491 0.008432
0.153953 0.216691 -0.050223
0.358304 0.266714 -0.204483
0.298100 0.136434 -0.204483
0.409055 -0.011712 -0.116105
0.313162 0.356821 -0.129753
0.448767 0.051753 -0.170526
0.455038 0.133549 -0.204483
0.162292 0.277354 -0.001140
0.501315 0.304599 -0.144232
-0.295110 0.024093 -0.129755
-0.321921 0.008224 -0.129755
-0.267513 -0.030072 -0.129753
-0.312792 -0.034690 -0.129755
-0.258363 0.046753 -0.129755
-0.235082 0.004721 -0.129753
-0.287102 0.027585 -0.050223
-0.302427 0.067773 -0.129755
-0.350956 0.037526 -0.129753
-0.334770 0.005959 -0.050223
-0.259366 -0.022411 -0.050223
-0.328518 -0.023080 -0.050223
-0.288726 -0.070642 -0.129753
-0.375409 -0.017410 -0.129753
-0.342914 0.051076 -0.050223
-0.236998 0.074489 -0.129755
-0.347254 -0.063789 -0.129755
-0.246022 0.056402 -0.050223
